# .PCD v0.7 - Point Cloud Data file format
VERSION 0.7
FIELDS x y z
SIZE 4 4 4
TYPE F F F
COUNT 1 1 1
WIDTH 1558
HEIGHT 1
VIEWPOINT 0 0 0 1 0 0 0
POINTS 1558
DATA ascii
101.34395 10.032552 -3.474642
101.47848 10.142541 -3.518424
101.53992 10.105989 -3.4830968
101.46899 10.174977 -3.4765177
101.42653 10.093192 -3.4322772
101.84105 10.015542 -3.4594672
101.93723 9.8357162 -3.4617472
101.76534 10.004526 -3.4554434
102.3478 9.3487024 -3.542448
102.48016 9.3190479 -3.6149609
102.68005 8.7556772 -3.0902514
103.32623 8.9445143 -3.3768167
102.80161 8.7266665 -2.9870577
102.07136 9.4778194 -3.496259
102.20786 9.5617771 -3.4895651
102.19693 9.6758795 -3.4986308
102.12622 9.6215553 -3.4880764
102.32089 9.5939674 -3.5099967
102.62815 9.6427956 -3.5490713
102.4659 9.6166592 -3.5027473
102.40377 9.4450226 -3.4890976
102.1773 10.154196 -3.4723303
102.73497 9.6597595 -3.5150204
102.23415 10.020052 -3.4905841
102.07882 9.896924 -3.5173645
102.41033 9.834815 -3.4704258
102.39143 10.016011 -3.5091646
102.4902 10.125088 -3.5039682
102.66387 9.8370228 -3.5081656
103.01691 9.6429777 -3.5955517
103.00507 9.805212 -3.5467348
102.83415 9.7114811 -3.5007567
103.05822 10.138896 -3.5135629
103.246 9.7261763 -3.597482
102.99289 9.9767962 -3.5350022
103.19524 10.181316 -3.5191278
103.31235 10.106491 -3.52601
103.25343 10.171904 -3.5231438
103.48246 10.134622 -3.5394382
103.09468 8.8627605 -2.6926885
102.92603 9.2948608 -1.5391749
102.35754 9.1078281 -0.98612165
103.76537 10.09005 -3.5917976
103.65542 10.012341 -3.5396554
104.02619 9.8173971 -2.8467176
104.39169 9.8859453 -1.6229205
104.83207 9.479104 -1.3060431
105.83002 10.170121 -0.69355011
97.633461 10.244659 -3.2380831
97.77858 10.33361 -3.2180009
97.823959 10.484348 -3.2250926
97.937836 10.270013 -3.238589
97.99987 10.313096 -3.2508912
98.084503 10.360174 -3.2448261
98.01609 10.429887 -3.271482
97.603256 10.718109 -3.1884456
97.827454 10.822271 -3.2464285
97.671326 10.764491 -3.2117445
98.222893 10.445337 -3.2429531
98.362488 10.207918 -3.2660077
98.284431 10.339849 -3.2614164
98.387215 10.360191 -3.2599306
98.501686 10.198686 -3.2750604
98.478058 10.25234 -3.2675278
98.580101 10.231225 -3.28108
97.882156 10.841933 -3.2352536
98.446609 10.31516 -3.2713313
98.282295 10.439567 -3.248086
98.756966 10.456258 -3.222502
98.467117 10.512656 -3.2691245
98.919617 10.436563 -3.2959635
98.642349 10.247317 -3.2742803
98.968712 10.45639 -3.2994633
98.398537 10.735527 -3.2517655
98.465965 10.581278 -3.2607903
98.871468 10.544151 -3.2660539
98.43116 10.619653 -3.2474203
98.983543 10.609367 -3.2667487
98.455078 10.671665 -3.2463992
98.861053 10.725302 -3.2644742
98.709358 10.900384 -3.2390914
98.561684 10.774333 -3.2420967
98.971504 10.825096 -3.2879555
98.932259 10.788742 -3.2619977
98.702118 10.652721 -3.2828684
97.524521 10.969723 -3.1836162
97.609192 11.062701 -3.1963611
98.072906 11.07396 -3.2309084
98.121422 11.095938 -3.2308147
98.168716 11.108619 -3.211889
98.032074 11.223574 -3.1975939
97.915001 11.272429 -3.2107146
97.564995 11.51714 -3.1937611
98.042587 11.638114 -3.2029204
98.601212 11.261371 -3.2199957
97.735138 11.401684 -3.1931808
98.107758 11.611047 -3.1955085
98.75499 10.985316 -3.2470517
98.9645 11.203938 -3.2634284
98.540031 11.08752 -3.2372799
98.66629 11.486216 -3.2673416
98.946045 11.046463 -3.2624915
98.725609 11.495955 -3.2551804
98.947563 11.676329 -3.2234387
98.80175 11.21599 -3.2455237
99.541466 10.283544 -3.333358
99.28788 10.357824 -3.3083408
99.242828 10.303457 -3.3075764
99.409073 10.426707 -3.316941
99.526901 10.219802 -3.3256984
99.397339 10.350711 -3.3164248
99.634354 10.482643 -3.3306298
99.14325 10.727862 -3.2822843
99.315933 10.676241 -3.294153
99.135178 10.886703 -3.2673483
99.189293 10.88169 -3.2904446
99.349632 10.871779 -3.2964785
99.394272 10.61482 -3.3007243
99.541428 10.636187 -3.3064623
99.648552 10.873707 -3.3087735
99.709061 10.702702 -3.3107951
99.929001 10.377469 -3.3390913
100.08062 10.264769 -3.3425205
100.00263 10.352249 -3.3501835
99.845482 10.458345 -3.3397293
100.07299 10.454891 -3.3596525
99.88974 10.220482 -3.3375466
99.923149 10.285062 -3.3442307
99.969269 10.480934 -3.3354971
100.10141 10.498498 -3.3544316
100.15168 10.312288 -3.3594418
100.38467 10.497899 -3.3795257
100.12042 10.588575 -3.3510265
99.87606 10.776114 -3.3378587
99.905716 10.809718 -3.3637445
99.486389 10.302684 -3.3172169
100.29655 10.661285 -3.3466725
99.620728 10.321061 -3.3322465
100.26542 10.70387 -3.3343706
100.45639 10.740518 -3.3585212
99.898315 10.444528 -3.3200583
99.964668 10.619117 -3.3181829
99.969322 10.833043 -3.3244588
99.151871 11.117675 -3.2576764
100.36276 10.871453 -3.3497982
99.447365 11.06 -3.2971215
99.634689 11.011601 -3.3018339
99.726151 10.956666 -3.2878234
99.441475 11.214095 -3.2890527
99.302238 11.332934 -3.2656395
99.611427 11.397098 -3.2673502
99.6651 11.427536 -3.2713335
100.41559 11.33686 -3.3468723
99.914131 10.991918 -3.3252079
100.08263 11.058637 -3.3081102
100.23732 11.048198 -3.3078473
99.800026 10.43167 -3.317246
100.17465 11.210784 -3.3121226
100.43513 10.459268 -3.3687289
99.994209 11.537144 -3.3015001
100.44168 11.548176 -3.3259156
100.5004 11.694466 -3.3069952
97.483223 11.934931 -3.249912
98.985725 11.709807 -3.2186456
98.979668 11.786071 -3.2100432
98.489845 11.798717 -3.2212629
98.227928 12.880362 -2.2278774
99.193367 12.006179 -3.2459366
99.254112 12.035419 -3.2382479
99.572945 11.828468 -3.2745931
99.732231 11.805571 -3.2761455
99.605507 12.39743 -3.2454193
99.797615 11.956138 -3.2578087
99.849152 11.727137 -3.2980387
99.883179 11.977707 -3.2607033
99.969254 11.732663 -3.3062239
99.998764 11.925003 -3.2761745
100.07736 11.764961 -3.3071051
100.06076 11.972523 -3.2681055
100.44953 11.835817 -3.3098459
99.911186 12.139301 -3.2734468
100.00665 12.103591 -3.2790546
100.27804 12.368488 -3.2534516
99.3246 12.761 -3.4970553
99.932663 12.575863 -3.254282
99.538376 12.798958 -2.6377079
98.550858 12.219865 -0.81751519
99.993385 12.912491 -0.99921799
100.51252 10.378963 -3.3578541
100.5735 10.424074 -3.3804274
100.67928 10.291553 -3.3952484
100.62017 10.391742 -3.3684537
100.68675 10.460183 -3.3792844
100.73322 10.289804 -3.4023812
100.76976 10.324343 -3.3979201
100.52297 10.495157 -3.3567293
100.82288 10.351995 -3.3970604
100.51285 10.549788 -3.3735008
100.88054 10.377851 -3.3993502
100.58765 10.524833 -3.3716545
100.79381 10.407574 -3.4113758
101.17474 10.296999 -3.3988366
100.89115 10.471222 -3.3862321
100.88984 10.547701 -3.3860619
100.95858 10.550369 -3.3811038
101.00831 10.270594 -3.4037483
100.62767 10.588898 -3.3689251
101.03881 10.503195 -3.3741541
100.73423 10.76109 -3.3657229
101.12807 10.456436 -3.418689
101.12637 10.711772 -3.4443462
100.80106 10.625463 -3.3689001
101.21529 10.579064 -3.4240155
100.52429 10.921832 -3.3394339
101.17692 10.463305 -3.3863435
101.24306 10.470021 -3.3974104
101.11369 10.368298 -3.0110114
100.96038 10.649443 -3.3822327
101.10144 10.516101 -3.014498
100.6437 10.811997 -3.3312173
100.76657 10.897018 -3.3145406
101.54601 10.484893 -3.4243789
101.35933 10.276032 -3.4223421
101.51862 10.565392 -3.3952174
101.69946 10.553597 -3.4182701
101.43513 10.434744 -3.4214666
101.91899 10.218257 -3.4629138
101.2914 10.373124 -3.4232075
101.80933 10.565238 -3.4230971
101.34451 10.355569 -3.4247139
101.94192 10.443558 -3.442611
101.34204 10.515262 -3.4142609
101.83266 10.512924 -3.4483757
101.86813 10.568346 -3.4353042
101.49452 10.708179 -3.4068079
101.54381 10.670061 -3.4088275
101.37226 10.652738 -3.4074185
101.42959 10.659993 -3.4134636
101.95716 10.538078 -3.4327569
101.57898 10.707891 -3.393311
101.64246 10.733268 -3.40958
101.35998 10.745448 -3.4080329
101.49519 10.615876 -3.4036887
101.3292 10.884974 -3.4055834
101.29089 10.86172 -3.3682473
101.82153 10.673155 -3.4442046
101.56013 10.594561 -3.4179773
101.59323 10.644894 -3.4095514
101.98083 10.619456 -3.4306247
101.36552 10.91785 -3.3662858
101.4503 10.946974 -3.3751714
101.61484 10.374123 -3.1769567
101.6572 10.672785 -3.4222529
101.69412 10.720898 -3.411514
101.71207 10.766525 -3.4268544
101.66515 10.847878 -3.4207573
101.03909 11.080577 -3.3622708
100.78088 11.265533 -3.3495247
101.05199 11.264766 -3.3767855
101.11472 11.117187 -3.3637633
101.96515 10.728145 -3.1832201
101.11716 11.191377 -3.37094
101.25349 11.072782 -3.3815084
100.59236 10.950327 -3.3377905
101.20783 11.15199 -3.379626
100.8479 11.064939 -3.3323224
100.79384 11.679061 -3.343245
100.7066 11.227268 -3.3220172
101.08614 11.537118 -3.3523254
100.9337 11.338515 -3.354003
101.05506 11.381797 -3.355161
100.73773 11.628899 -3.3225045
100.86808 11.451065 -3.3299608
100.54826 11.542041 -3.3165512
101.38293 11.096233 -3.4026549
101.43364 11.122375 -3.3890271
101.50658 11.093579 -3.3656955
101.30476 11.11884 -3.3603225
101.28057 11.248198 -3.3854814
101.89471 10.954143 -3.4082143
101.45708 11.184489 -3.3896849
101.56786 10.994893 -3.3979843
101.64135 11.013437 -3.401623
101.39493 11.146833 -3.4130518
101.40781 11.169444 -3.3700233
101.71428 11.051948 -3.416471
101.89172 11.109537 -3.3985157
101.62566 11.469118 -3.3825705
101.79268 11.141787 -3.4062028
101.31879 11.560847 -3.3543656
101.45732 11.617422 -3.3673804
101.49133 11.393301 -3.3798904
101.4046 11.579775 -3.3649108
101.51688 11.436412 -3.3785746
101.2907 11.651179 -3.364383
101.83605 11.439137 -3.3905232
101.86676 11.171412 -3.40364
101.96426 11.504405 -3.4000323
101.8833 11.578956 -3.3965299
101.98438 11.164183 -3.3973241
101.59017 11.142145 -3.3246329
101.95631 11.570362 -3.3905921
101.65587 11.630249 -3.3746686
100.81996 11.005838 -2.87959
101.80854 11.031564 -3.1766126
101.84064 11.647792 -3.3919861
101.74748 11.701253 -3.3907678
101.59264 10.675507 -2.9295733
101.92856 11.680575 -3.3892376
102.05696 10.363389 -3.485903
102.11626 10.421269 -3.4807453
102.17017 10.430066 -3.4845567
102.30914 10.203971 -3.4668145
102.72789 10.285999 -3.5051775
102.05038 10.502083 -3.445272
102.46483 10.391073 -3.4691722
102.12057 10.547836 -3.4416986
102.53111 10.517548 -3.4745059
102.11297 10.639003 -3.4504416
102.7216 10.39747 -3.5054686
102.25312 10.717463 -3.4324646
102.06408 10.635579 -3.4230478
102.58516 10.620333 -3.4741344
102.65928 10.49294 -3.4789491
102.59875 10.524599 -3.4727879
102.43613 10.713784 -3.4636374
102.72005 10.499796 -3.4784238
102.4995 10.691714 -3.472805
102.76627 10.543516 -3.4876606
102.51829 10.808414 -3.2113526
102.64758 10.620687 -3.488374
102.9054 10.364006 -3.5360787
102.71255 10.636003 -3.4900663
102.52929 10.857017 -3.4683011
102.54118 10.940403 -3.4539437
102.39094 10.894727 -3.4476736
102.33451 10.904116 -3.4418483
102.27929 10.722044 -3.0488856
103.07803 10.359244 -3.5176704
103.04883 10.481577 -3.5034306
103.46716 10.283164 -3.5358284
103.17453 10.224596 -3.5017405
102.80059 10.438643 -3.4594598
103.1602 10.385607 -3.5223408
103.26929 10.267211 -3.4985516
103.32507 10.528382 -3.5295563
103.38393 10.226388 -3.5229533
103.24494 10.568582 -3.5119689
103.14645 10.452699 -3.5133297
102.9073 10.712703 -3.4852059
103.10172 10.69499 -3.4844112
102.94162 10.749816 -3.4817359
102.88446 10.914241 -3.4762468
102.99884 10.647677 -3.4968174
102.93684 10.614469 -3.5033524
102.91153 10.854279 -3.4597936
103.00011 10.776302 -3.4804726
102.78524 10.687269 -3.4843841
103.11625 10.807539 -3.5014508
103.13798 10.940212 -3.4967074
103.17067 10.634867 -3.500535
103.30973 10.901525 -3.5001028
103.35149 10.588801 -3.5265143
102.97787 10.868343 -3.4833441
103.36144 10.918791 -3.516886
103.48155 10.574039 -3.5295541
103.52805 10.742428 -3.519206
102.05865 11.029576 -3.4322228
102.06277 11.252929 -3.4039886
102.3261 11.080107 -3.4384861
102.17237 11.199592 -3.4308152
102.14508 11.053391 -3.433723
102.2402 11.223013 -3.4430816
102.20741 11.260224 -3.4347267
102.61611 10.980468 -3.4544299
102.66904 10.99791 -3.4621587
102.48999 10.98615 -3.4547501
102.44641 11.027488 -3.4486761
102.74721 11.038036 -3.4601483
102.2207 10.992572 -3.4424341
102.27392 11.002023 -3.4446337
102.72328 11.221446 -3.4629014
102.06896 11.50626 -3.4096863
102.60079 11.139451 -3.4514341
102.67738 11.184797 -3.4672377
102.24229 11.329789 -3.4299743
102.64474 11.222554 -3.4486656
102.30677 11.500639 -3.4114852
102.36858 11.37808 -3.4305637
102.18941 11.564289 -3.4039986
102.3233 11.428976 -3.4366963
102.17938 11.625066 -3.3917418
102.15987 11.690773 -3.4142973
102.45121 11.36773 -3.4205742
102.63533 11.451207 -3.4298522
102.23342 11.681842 -3.4056661
102.47013 11.467808 -3.4223087
102.5611 11.45305 -3.4303191
102.40561 11.236068 -3.1671951
102.61794 11.343749 -3.4485195
102.58867 11.224529 -3.1082737
102.18367 11.065363 -3.222038
102.62152 11.436019 -3.1825421
103.03184 11.098019 -3.4735165
103.01012 10.961637 -3.46924
103.09273 11.115093 -3.4749663
103.04847 11.032823 -3.4626114
103.05842 11.247087 -3.4729993
103.11808 11.28049 -3.4661627
102.87943 11.308722 -3.444922
103.27007 11.257125 -3.4968736
103.30905 11.298065 -3.4905906
102.99188 11.362112 -3.4743576
103.16702 11.270273 -3.4782836
103.24364 11.304937 -3.481535
103.21043 11.234759 -3.4644954
102.89728 11.553365 -3.4558954
102.80049 11.387552 -3.4550562
103.35931 11.288293 -3.4925797
103.01086 11.503752 -3.4587235
103.40097 11.265755 -3.473398
102.8875 11.379798 -3.4606621
102.94203 11.399027 -3.4598165
103.11797 11.469745 -3.4772694
103.16418 11.511876 -3.4707763
103.27698 11.471314 -3.4771988
103.25831 11.643534 -3.4385672
103.47887 11.492841 -3.4903579
103.16735 11.414298 -3.4721344
103.1908 11.669555 -3.3988948
103.36051 11.458323 -3.3482544
103.31187 11.419054 -3.4853699
103.39106 11.512106 -3.4525299
103.34824 11.588908 -3.4619331
103.24987 11.159252 -3.2340577
103.24059 11.534779 -3.4922006
103.46574 11.640423 -3.4666495
103.23645 11.605733 -3.4676883
102.98611 11.573875 -3.2093596
103.35921 11.644148 -3.4762483
102.80913 11.053871 -3.1123047
100.90405 11.816456 -3.3362505
103.0414 11.031564 -3.0959816
103.28017 11.566952 -3.4994793
103.30323 11.611527 -3.4693284
103.04974 11.147318 -3.0894904
101.03522 11.823873 -3.33571
100.92851 12.050856 -3.335916
101.197 12.174102 -3.3237436
100.59236 12.167552 -3.3237443
101.54575 11.785269 -3.3645113
101.55298 11.987287 -3.3652472
101.06386 12.164041 -3.32411
100.57504 12.061582 -3.3140619
101.89307 11.773547 -3.3987639
101.79514 11.729505 -3.3797011
101.55417 12.144187 -3.3433948
101.80169 12.022519 -3.3917968
101.85775 11.821175 -3.3910906
101.60796 12.381515 -3.3500214
101.97539 11.83873 -3.3797097
101.62132 12.200559 -3.3547544
101.67789 12.307506 -3.3575783
101.91434 12.090936 -3.372901
101.23442 12.596572 -3.3058851
101.84892 12.275814 -3.3611143
101.92617 12.343662 -3.3613367
101.97601 12.524314 -3.353723
101.41896 12.67907 -3.2990115
101.36315 12.729257 -3.3375344
100.99664 12.480274 -3.2784619
101.61877 12.788318 -3.3337831
101.82098 12.898559 -3.3381085
101.57362 12.486624 -3.3249977
102.20318 11.72476 -3.4183075
102.29839 11.755439 -3.4104047
102.02483 11.895083 -3.3808122
102.26582 11.864746 -3.4117172
102.07705 11.879058 -3.3929443
102.48952 11.819763 -3.4155574
102.14204 11.811026 -3.4009056
102.38311 11.819882 -3.419553
102.12289 11.890412 -3.4102745
102.77632 11.890541 -3.4316647
102.42953 11.70962 -3.4165654
102.49437 11.742039 -3.4087572
102.66183 11.83472 -3.4230709
102.53397 11.778765 -3.4142432
102.08538 12.119162 -3.3999152
102.12321 12.396013 -3.3735189
102.66469 11.908463 -3.4137585
102.25079 12.309387 -3.4265881
102.55444 12.261249 -3.4105599
102.51657 12.348951 -3.4059374
102.41649 12.260251 -3.4084539
102.64818 12.137426 -3.4013879
102.57089 12.391144 -3.4121006
102.53222 12.459446 -3.4018979
102.78258 11.967108 -3.4215617
102.88571 11.955552 -3.4400084
103.00426 11.901608 -3.451411
103.30865 11.729899 -3.4555993
102.90807 12.002006 -3.4285452
102.95646 12.020663 -3.4358282
103.21587 11.965693 -3.4360139
103.36751 12.046674 -3.461731
103.42516 12.063922 -3.4683905
103.51749 12.02964 -3.467766
102.79602 12.448461 -3.407438
103.13415 12.41034 -3.433377
102.98724 12.354951 -3.4404254
102.96249 12.163476 -3.4383807
103.39306 12.351168 -3.4582984
103.12422 12.318192 -3.4383242
103.17738 12.262445 -3.4277501
103.35136 12.377621 -3.4482145
103.00252 11.73351 -3.2151146
102.24863 12.599906 -3.359983
102.27624 12.678761 -3.3612058
102.2181 12.705421 -3.3646271
102.65086 12.6443 -3.3938992
102.65495 12.490424 -3.399035
102.45714 12.836308 -3.362448
102.08693 13.029876 -3.3346322
102.68272 12.827205 -3.4036736
102.27663 12.997902 -3.354892
102.71101 12.505293 -3.409306
102.50192 12.848693 -3.3830712
102.96217 12.663493 -3.4151635
103.47152 12.560381 -3.4359012
102.68524 12.960037 -3.3780768
103.15471 12.71895 -3.418133
102.8812 12.913894 -3.3990254
102.78648 12.712199 -3.3977096
102.97334 12.929922 -3.4114058
103.37399 12.813888 -3.3957331
103.15775 12.587168 -3.4052153
103.17226 12.951338 -3.4238288
103.40784 13.17568 -3.4206631
103.48322 13.175641 -3.4132006
99.821823 13.442369 -2.7546444
100.49224 13.623461 -0.79294682
97.709755 10.551332 -3.2299132
102.68909 13.716635 -3.3458107
102.96228 13.382406 -3.372504
103.40897 13.446738 -3.3853292
103.51442 13.414203 -3.4186096
102.07407 13.878041 -3.5676346
102.35773 14.498381 -2.6851172
102.85934 14.168436 -2.3859823
102.15652 13.677783 -0.78930295
102.29469 14.350511 -0.70186299
98.239616 11.839156 -0.59299719
99.797325 12.289824 -0.43381691
99.186066 13.005123 -0.57043356
101.94176 13.467048 -0.035996106
102.76137 13.66888 -0.59356523
102.50665 13.877126 -0.095665902
103.7252 10.372882 -3.5532093
103.53171 14.607316 -0.18879965
103.78163 10.517986 -3.5446749
103.86552 10.362307 -3.5615053
103.68457 10.514533 -3.5374875
104.07672 10.203624 -3.6201255
103.97198 10.563839 -3.5592101
103.92836 10.371606 -3.5565946
103.93723 10.257042 -3.5784297
104.04559 10.560996 -3.5510497
103.60059 10.746531 -3.5316143
103.55918 10.65563 -3.5279088
103.86733 10.609337 -3.5488143
103.70724 10.630573 -3.5344055
103.8341 10.731838 -3.5244262
103.66505 10.864431 -3.5286114
103.71044 10.912642 -3.5318706
103.71922 10.823688 -3.5325136
103.61454 10.85663 -3.5129759
103.77056 10.93951 -3.5323412
103.93785 10.899181 -3.5249956
103.99978 10.902678 -3.550065
103.92612 10.770308 -3.5128853
104.22426 10.64736 -3.552923
104.41918 10.519134 -3.5751433
104.61149 10.337572 -3.6237574
104.80079 10.502641 -3.5714686
104.69046 10.337007 -3.6514201
104.45212 10.901716 -3.5254006
104.34958 10.64211 -3.5636268
104.62282 10.846584 -3.5775557
104.47084 10.610904 -3.5767176
104.67271 10.715879 -3.5850372
104.96959 10.784375 -3.6031039
103.55126 11.125799 -3.5071707
103.78502 11.157516 -3.5221994
103.78278 11.019835 -3.5290093
103.70362 11.216228 -3.4902029
103.90129 11.115618 -3.52122
103.75106 11.080503 -3.526875
103.60892 11.23953 -3.4871643
103.56455 11.178396 -3.5025239
103.83942 11.256469 -3.5187812
104.18935 11.09997 -3.5354147
103.88326 11.190257 -3.5093827
103.78103 11.240514 -3.5112741
103.73093 11.297463 -3.5107343
104.04524 11.008982 -3.5175004
104.02168 11.257825 -3.5240273
104.01717 11.128524 -3.5173328
103.93396 11.210673 -3.5202651
103.92507 11.292797 -3.5149391
103.65029 11.613562 -3.5001011
103.70046 11.654515 -3.4975288
103.72329 11.432681 -3.4786665
103.55554 11.575733 -3.4828696
103.88973 11.365354 -3.512162
104.07273 11.407023 -3.5298109
104.12243 11.58106 -3.5249608
103.57117 11.687527 -3.4683435
104.22876 11.587467 -3.5392413
103.93858 11.541844 -3.5036223
104.568 11.107759 -3.543381
103.98758 11.358191 -3.5201099
104.15668 11.665403 -3.5808659
103.94411 11.393657 -3.5062585
104.17692 11.620568 -3.5261393
104.63273 11.117266 -3.5603821
104.01871 11.523246 -3.5031188
104.02987 11.591577 -3.5064662
103.91454 11.4861 -3.5113425
104.66698 11.191161 -3.5554545
104.52209 11.288776 -3.5487583
104.26978 11.371521 -3.5129406
104.54472 11.165806 -3.5517375
104.89519 10.966104 -3.577903
104.79436 11.030102 -3.5768776
105.00803 11.026225 -3.5869319
104.57021 11.560874 -3.5493407
104.48474 11.580164 -3.5566001
104.69895 11.262928 -3.5543044
104.64871 11.597139 -3.5558891
104.34695 11.703952 -3.6308882
104.47936 11.541687 -3.5242889
104.92891 11.154472 -3.576268
104.97752 11.433756 -3.5732238
104.29324 11.614447 -3.6035914
104.75344 11.593573 -3.5573912
104.29707 11.6982 -3.5888946
104.37508 11.673395 -3.6011219
104.33412 11.638354 -3.5673604
105.13486 10.651954 -3.6390653
105.06055 10.63994 -3.6134446
105.15739 10.944162 -3.5955186
105.06618 10.736039 -3.6030645
105.32363 10.581737 -3.6771994
105.23941 10.765419 -3.5933533
105.30665 10.847547 -3.6074882
105.64408 10.777468 -3.6892567
105.69501 10.855035 -3.6776352
105.14812 10.808 -3.5964832
105.19622 10.831833 -3.5989408
105.76685 10.944803 -3.6353741
105.85899 10.820235 -3.6814158
105.86333 10.893394 -3.642673
105.15733 11.088236 -3.597492
105.29656 10.957337 -3.6062846
105.17697 11.165424 -3.5925357
105.29764 11.24235 -3.5838962
105.68203 11.008444 -3.6263957
105.58714 10.982331 -3.6265607
105.06658 11.489125 -3.5792534
105.46706 10.975432 -3.6115923
105.7138 11.283072 -3.6205964
105.71411 11.0492 -3.61447
105.41853 11.475093 -3.617363
105.2963 11.332911 -3.6078246
105.40799 11.360839 -3.6335897
105.36403 11.32983 -3.6135814
105.1386 11.619772 -3.5816
105.56123 11.397377 -3.6108639
105.45574 11.5117 -3.5905604
105.57009 11.342666 -3.6180506
105.41176 11.559798 -3.5798738
105.49691 11.397192 -3.5965796
105.70578 11.465946 -3.6131473
105.60185 11.432405 -3.6046288
105.5499 11.60203 -3.5891867
105.58761 11.504952 -3.6107666
105.77191 11.494494 -3.6085424
105.62677 11.662749 -3.5910442
105.64231 11.40164 -3.6213419
105.47819 11.581651 -3.5886786
105.84389 10.977386 -3.6290977
106.02183 10.954327 -3.6284287
105.65003 11.55268 -3.6015062
105.69688 11.580357 -3.6053774
106.14413 11.219728 -3.6404507
105.89355 11.112568 -3.6423364
105.9629 11.139392 -3.645946
105.88432 11.411829 -3.6176174
105.87065 11.278424 -3.6341703
105.88415 11.623441 -3.6062989
105.97272 11.293314 -3.6230614
105.83165 11.504705 -3.6037557
106.01585 11.468763 -3.624382
106.06473 11.521797 -3.6226039
106.37961 11.375576 -3.6544569
106.23404 11.651381 -3.6362824
106.12097 11.537734 -3.6254866
106.55458 11.429856 -3.6787589
106.31011 11.623779 -3.6252663
106.44488 11.630122 -3.624733
103.78171 11.744772 -3.4704511
103.71738 11.957357 -3.418021
103.58274 11.858296 -3.469887
103.79333 11.730155 -3.4027908
104.18283 11.743414 -3.5563188
103.78529 12.068845 -3.4542742
104.22173 11.763893 -3.5831242
103.98368 12.071399 -3.4772739
104.25473 11.808321 -3.5707681
104.26321 11.713453 -3.6406198
104.28628 11.842014 -3.5928094
104.05699 12.04112 -3.5047562
104.10337 11.95529 -3.5058901
104.0955 11.727381 -3.5177982
104.16257 11.896092 -3.5088291
104.23294 11.933546 -3.4846776
103.83756 12.120943 -3.4881737
103.71449 12.462842 -3.4584785
103.7187 12.143623 -3.4658754
103.7608 12.240522 -3.4826999
103.70024 12.229485 -3.4765391
103.6535 12.251672 -3.4414186
103.75816 12.297508 -3.4583483
103.78437 12.354471 -3.459671
104.22102 12.2004 -3.479212
103.83537 12.283857 -3.4791903
103.83286 12.333634 -3.4746048
103.88387 12.321742 -3.4700124
103.94537 12.332697 -3.4661436
104.12524 12.456331 -3.4649894
104.29369 11.761654 -3.6375496
104.25475 12.38187 -3.4825418
104.0626 12.402125 -3.4677703
104.64825 11.957005 -3.5264778
104.37965 11.986909 -3.4840004
104.30971 11.778358 -3.5695603
104.65612 12.047105 -3.52209
104.34959 11.765491 -3.6094089
104.33623 12.010539 -3.5001905
104.34205 11.730267 -3.5663283
104.5521 12.055058 -3.5083044
104.64186 11.738727 -3.4647298
104.38811 11.798425 -3.5663338
104.91621 11.707743 -3.5649793
104.91656 11.771466 -3.553894
105.02271 11.738648 -3.5538113
104.74222 11.780361 -3.5054245
104.75902 12.002949 -3.534867
104.91266 11.856829 -3.5483015
104.93382 11.999386 -3.3330281
105.02784 11.845847 -3.5607064
104.56266 12.130157 -3.5308924
104.6806 11.990399 -3.683656
104.35844 12.181802 -3.4749019
104.62968 12.211925 -3.4804976
104.5413 12.327792 -3.508034
104.71165 12.191294 -3.5422366
104.4642 12.242221 -3.4927907
104.60702 12.297248 -3.5010474
104.66969 12.278269 -3.5180807
104.6228 12.157015 -3.514909
104.49845 12.379895 -3.5069082
104.52941 12.423337 -3.4942491
104.50671 12.203173 -3.5174596
104.75375 12.317502 -3.5300062
104.75395 12.116351 -3.5336065
104.83575 12.353256 -3.5235448
104.90438 12.380319 -3.5235
104.98802 12.296396 -3.5106814
104.99863 12.447412 -3.5168612
103.84529 12.687244 -3.4580963
105.00275 12.364805 -3.5280702
104.17739 12.603872 -3.4613757
104.75528 12.419465 -3.5135512
103.74472 13.042468 -3.4200549
103.76012 13.194398 -3.4206016
104.22636 12.883084 -3.4654574
104.18298 12.967579 -3.4731688
103.78661 12.889003 -3.4399126
103.89632 12.946733 -3.4406452
104.0664 13.133788 -3.438386
104.29939 12.778258 -3.4957967
104.51861 12.627482 -3.4954553
104.95379 12.589638 -3.5235245
104.59264 12.574509 -3.5000062
104.65151 12.607872 -3.5090835
104.77505 12.535202 -3.5085688
105.04742 12.632563 -3.5363274
104.35012 12.680604 -3.4964855
104.84477 12.503665 -3.5238051
104.54596 12.964412 -3.4766283
104.69683 12.770437 -3.4932795
104.98277 12.785782 -3.5172784
105.0392 12.802423 -3.5038118
104.61645 13.204839 -3.4749172
104.58218 13.00379 -3.5024378
104.3467 12.937799 -3.4662747
104.46421 12.969828 -3.471133
104.86402 12.861095 -3.5042541
104.44034 13.054516 -3.4428883
104.71323 12.973962 -3.4991236
104.84019 12.977967 -3.5043187
105.1336 11.886972 -3.5572228
104.89346 13.010977 -3.5010312
105.22081 11.921776 -3.5503004
105.07974 11.763465 -3.5436635
105.14748 12.002049 -3.5599542
105.18903 12.026797 -3.5390515
105.46478 11.778671 -3.57407
105.24669 11.837714 -3.5774598
105.28822 11.853682 -3.543879
105.31184 12.081758 -3.5718935
105.53007 11.829119 -3.5820055
105.1026 12.136353 -3.5337527
105.79651 11.771091 -3.6220872
105.52325 12.027975 -3.5715873
105.58961 12.046659 -3.5919089
105.6359 11.718423 -3.5940161
105.68839 11.740651 -3.6047776
105.70174 12.077405 -3.6013641
105.14142 12.218682 -3.5417168
105.06615 12.435162 -3.5267665
105.13126 12.351197 -3.5434914
105.20546 12.410881 -3.5341709
105.58242 12.195173 -3.5678728
105.43406 12.290044 -3.5546288
105.50932 12.29792 -3.5665991
105.27026 12.369247 -3.5511906
105.26436 12.424573 -3.5439737
105.67324 12.200722 -3.5875857
105.69819 12.378731 -3.5663488
105.52539 12.411888 -3.3430042
105.71457 12.244801 -3.5538347
105.65213 12.342963 -3.5565264
105.21887 12.051077 -3.069154
106.07272 11.94025 -3.5384281
106.06275 11.765515 -3.6287529
106.25065 11.726011 -3.6140919
106.25922 11.799478 -3.6142511
106.34672 11.719302 -3.6162543
106.3258 11.826663 -3.6142955
106.2055 11.924164 -3.6179237
106.02574 12.20408 -3.5968239
106.54951 11.71285 -3.6196117
105.89164 12.096149 -3.5980599
106.10095 12.183754 -3.6037714
106.14243 12.223475 -3.5947726
106.16512 12.269424 -3.5724633
106.44241 11.863544 -3.6173027
105.981 12.329059 -3.5830197
106.15053 12.411551 -3.6265278
106.12469 12.264964 -3.333339
106.26316 12.297303 -3.6092982
106.05714 12.277006 -3.5820785
106.03108 12.351433 -3.5947413
106.32628 12.121727 -3.6016746
106.46268 12.250529 -3.6149716
106.13281 12.291717 -3.6052852
106.35287 12.343537 -3.5946541
106.20502 12.451615 -3.6025505
106.3101 12.247168 -3.6066005
106.17181 12.416367 -3.3299286
106.41513 12.304971 -3.6020427
106.54742 12.30494 -3.6292696
105.12009 12.47741 -3.5299168
105.09692 12.528511 -3.5354753
105.22594 12.610964 -3.537333
106.41445 12.37125 -3.6037281
105.1736 12.700602 -3.5224078
105.30466 12.514392 -3.5534661
105.33115 12.553001 -3.5343318
105.22111 12.471815 -3.5253694
105.22945 12.523293 -3.5287516
106.52496 12.411033 -3.6070888
105.22728 12.763185 -3.5279205
105.962 12.361118 -3.1831141
105.14118 12.570366 -3.5409241
105.76977 12.492132 -3.577214
105.40325 12.788461 -3.5066302
105.68649 12.616871 -3.5418036
105.11997 12.845833 -3.5299857
105.68114 12.536896 -3.5635638
105.11987 13.078331 -3.5258732
105.78371 12.72693 -3.5470614
105.28207 12.927707 -3.506165
105.29897 13.162976 -3.532383
105.18494 13.107728 -3.5371032
105.37301 13.175188 -3.5234809
105.68303 13.105264 -3.5641141
105.95697 12.626978 -3.5734317
105.47574 12.934229 -3.5512679
105.85567 12.747465 -3.559253
105.92746 12.543836 -3.563442
105.60117 12.970928 -3.5186348
106.10149 12.477763 -3.5767074
105.81699 12.587634 -3.5567622
106.50044 12.746992 -3.5821478
106.1236 12.632854 -3.5886602
106.23258 12.521227 -3.5800993
106.34078 12.80602 -3.3339777
106.14362 13.111933 -3.5823758
106.36969 12.566609 -3.5992663
106.53262 12.536188 -3.5018547
106.21111 12.84649 -3.5871611
106.20728 12.958439 -3.3339889
106.19962 12.731195 -3.1774352
106.53559 13.036098 -3.5725634
106.46932 13.099003 -3.584573
106.02612 12.857312 -3.1982317
106.38619 13.173195 -3.3303916
106.55369 13.137197 -3.5938735
106.4991 13.216644 -3.5828707
107.72262 10.791591 -3.0760884
107.13808 11.295261 -3.6088898
106.79123 11.519166 -3.6630137
106.63416 11.481437 -3.669275
107.47814 11.657163 -3.6975236
108.84271 11.368376 -3.5033207
108.47872 11.033301 -2.8732312
108.33681 11.654829 -2.8059278
106.65848 11.794823 -3.6196227
106.63544 11.959804 -3.6151686
106.7631 11.872128 -3.6463122
106.80248 11.921946 -3.6382871
106.73106 11.989856 -3.6399314
106.82769 12.051376 -3.6238654
107.30741 11.769526 -3.6687567
106.99349 11.948387 -3.6502666
107.15505 11.973988 -3.6713076
106.6039 12.193902 -3.6298599
107.26865 11.906638 -3.6615653
106.70753 12.235881 -3.6235969
107.23749 12.040056 -3.6545081
106.91327 12.092603 -3.6333497
106.70563 12.445924 -3.6271415
106.64341 12.43279 -3.6281013
106.59744 12.439703 -3.6084175
107.01831 12.114143 -3.6512692
106.91055 12.376388 -3.6521165
106.92941 12.450316 -3.6504161
107.1478 12.171285 -3.6390665
107.16486 12.250787 -3.6448832
107.21913 12.260651 -3.645083
107.0185 12.301546 -3.6469538
107.26544 12.288994 -3.6496415
107.54974 11.843646 -3.6908853
107.59669 11.864371 -3.6937556
107.36861 11.742587 -3.6798534
107.4515 11.784454 -3.6761749
107.66819 11.892154 -3.7045166
107.38198 11.937103 -3.6623371
107.73042 11.734884 -3.7044849
107.61333 12.002185 -3.6981752
107.68165 12.03476 -3.6959856
107.81459 11.947624 -3.7011609
107.88045 11.982859 -3.690721
107.38652 12.158556 -3.6356306
107.78559 12.055055 -3.6812372
107.48801 12.087192 -3.6715825
107.55579 12.176308 -3.6783178
107.32259 12.263173 -3.6704109
107.39262 12.228388 -3.6703877
107.67435 12.101547 -3.6808302
107.67609 12.15516 -3.668879
107.61195 12.152348 -3.6620834
107.75846 12.120809 -3.6813285
107.88929 12.228059 -3.6881742
107.94124 12.247628 -3.6912844
107.82372 12.097862 -3.6859033
107.79238 12.202871 -3.6798418
108.06167 12.393433 -3.6823063
106.63164 12.473168 -3.5876517
106.64892 12.557882 -3.580724
106.58374 12.555346 -3.5378428
108.00187 12.323436 -3.6832395
106.87921 12.497256 -3.6290321
106.59769 12.793439 -3.5875823
106.80589 12.530166 -3.6197274
106.69328 12.821616 -3.6008723
106.74952 12.806156 -3.6087191
107.00687 12.488625 -3.6172903
106.86781 12.814085 -3.3604598
106.94807 12.533352 -3.611872
106.99794 12.567792 -3.6029027
106.95808 12.608453 -3.3956788
107.27959 13.155383 -3.6178546
106.89677 12.933994 -3.2427649
107.52992 12.840683 -3.6537485
107.39134 12.832522 -3.5801868
107.66566 12.793509 -3.6589029
107.9819 12.642 -3.6964338
107.73698 12.67401 -3.6742213
107.75837 12.732043 -3.668191
108.05163 12.63116 -3.6884406
107.85956 12.710998 -3.6703238
107.93965 12.810197 -3.6621945
107.83936 12.760916 -3.6528068
108.01671 12.839653 -3.6825888
107.40392 13.04364 -3.63608
107.36859 12.87075 -3.6484876
107.48003 13.046717 -3.6431639
107.42715 12.872858 -3.6552143
107.38348 13.164313 -3.6245251
107.60797 12.994035 -3.6528561
107.53087 13.056352 -3.636637
107.6697 13.12087 -3.6455183
107.95197 13.014182 -3.636519
107.83972 12.856615 -3.6504211
107.938 12.887814 -3.68045
107.90228 12.914598 -3.6450622
107.7527 13.124974 -3.6418095
107.907 13.089845 -3.6606696
107.81056 13.149546 -3.6366231
108.00028 13.080499 -3.6647956
108.01898 13.035951 -3.6503458
107.38974 12.83477 -3.2703509
108.11207 12.266178 -3.7007408
107.91258 13.197689 -3.6403685
108.23523 12.257682 -3.7100689
108.06443 13.137919 -3.6648729
108.28835 12.218921 -3.7041626
108.10908 12.384469 -3.6959412
108.10493 12.451429 -3.687067
108.20777 12.418335 -3.6972058
108.33121 12.332736 -3.7010937
108.40229 12.392345 -3.7064846
108.08698 12.504209 -3.687314
108.11879 12.612268 -3.6606045
108.1741 12.628747 -3.6819234
108.40502 12.480596 -3.6910558
108.28844 12.700747 -3.690017
108.30865 12.47 -3.6958575
108.32625 12.793206 -3.6916354
108.48282 12.606437 -3.7101572
108.58336 12.483073 -3.7072189
108.10999 12.886162 -3.668072
108.54388 12.799858 -3.7083225
108.22789 12.878453 -3.6755373
108.29161 12.932092 -3.6873388
108.39093 12.944355 -3.6803107
108.34443 12.933676 -3.6634762
108.37107 13.021628 -3.6835279
108.24739 13.184997 -3.6743467
108.15803 13.107708 -3.6650169
108.08128 13.060247 -3.6576605
108.43532 13.216647 -3.676578
108.22536 13.052559 -3.6773622
108.25889 13.115835 -3.6834056
108.59189 12.850412 -3.7006018
108.41581 13.063429 -3.6686707
108.29989 13.152523 -3.6760466
108.48306 12.987828 -3.6771061
108.70901 13.073638 -3.6851685
108.50176 13.092943 -3.6762285
108.83004 13.129559 -3.6924169
108.77495 13.19937 -3.687839
108.63161 13.149801 -3.6930459
108.87757 12.536284 -3.7110493
108.99966 13.05403 -3.7041614
108.88545 13.142341 -3.703989
108.97008 13.132801 -3.6979136
108.6783 11.737519 -1.239646
108.96683 12.078049 -0.94284314
103.76865 13.424887 -3.4169886
104.06991 13.227142 -3.4466243
104.25193 13.32061 -3.4279821
103.717 13.401703 -3.3993344
103.95483 13.5856 -3.4015374
103.61176 13.89245 -3.3745375
104.18822 13.476992 -3.4476438
104.14274 13.675155 -3.4325726
104.55886 13.395045 -3.4566381
104.12687 13.774086 -3.4226165
104.54722 13.495239 -3.4726884
104.31308 13.289559 -3.4384453
104.93041 13.261492 -3.499532
104.56084 13.708481 -3.4219804
104.5225 13.619897 -3.4519193
104.37898 13.925743 -3.4229512
104.93233 13.697751 -3.464375
104.74319 13.86678 -3.4623308
104.8568 13.647215 -3.4602325
103.90557 14.209743 -3.3776727
104.8903 14.085581 -3.4534285
105.26377 13.342409 -3.510577
105.33085 13.352738 -3.4850974
105.21548 13.595915 -3.5022459
105.43 13.22233 -3.5413709
105.52798 13.323546 -3.5732787
105.60728 13.342878 -3.6142993
105.40395 13.596243 -3.4830379
105.69878 13.387765 -3.6694257
105.66 13.354178 -3.5460982
105.68338 13.316178 -3.628741
105.64017 13.385757 -3.6438322
105.13635 13.615265 -3.4902229
105.12476 13.665198 -3.4765325
105.74348 13.355648 -3.6733828
105.64198 13.232392 -3.5846531
105.68168 13.23193 -3.5301468
105.25833 13.762252 -3.4835784
105.16472 13.793748 -3.4920461
105.18913 13.840973 -3.4863532
105.76746 13.634798 -3.529933
105.36372 13.748209 -3.4851954
105.40702 13.848276 -3.4836617
105.46636 13.953712 -3.5081425
105.45161 13.952839 -3.458102
105.29383 13.968869 -3.5099511
105.62703 13.832278 -3.5050049
105.71187 13.678308 -3.5234616
105.56338 13.79276 -3.4872224
105.74065 13.799844 -3.5091572
106.4684 13.339703 -3.5619152
106.53062 13.323631 -3.6747348
106.47822 13.338927 -3.6495538
106.46641 13.58558 -3.5430241
106.23517 13.470003 -3.5545859
106.43092 13.304387 -3.5441756
106.34397 13.245723 -3.4675443
106.10995 13.82515 -3.528039
106.30034 13.517089 -3.5581205
105.90839 13.74257 -3.5219901
106.39359 13.612929 -3.5733385
106.5063 13.643501 -3.5464041
105.1351 14.044837 -3.4622781
106.46824 13.746402 -3.5384326
105.21809 14.11783 -3.4628544
105.32133 14.015464 -3.4975827
106.53863 13.774403 -3.5493076
105.32235 14.326593 -3.4561369
105.78503 14.130026 -3.4892499
106.54578 13.927517 -3.546463
105.51102 14.419925 -3.498781
105.62751 14.022024 -3.4957862
105.4826 14.604429 -3.4466424
105.94646 14.119669 -3.530355
106.11161 14.215578 -3.5027862
106.54765 14.013798 -3.5334868
106.19759 13.989721 -3.5263376
106.43167 14.111031 -3.5206738
106.4818 14.294905 -3.5148365
106.2477 14.419857 -3.4997182
105.84825 14.370287 -3.495167
105.94003 14.638256 -3.4954309
106.08289 14.599414 -3.4866769
105.54696 14.870278 -3.4490194
105.59136 15.340909 -3.6608274
106.19765 14.95015 -3.4768336
105.92789 14.827185 -3.4528008
105.5802 15.870993 -2.617157
104.18687 14.448636 -1.1065613
104.23211 14.440845 -1.1279402
104.20379 14.469151 -1.0267085
104.26917 14.451281 -0.92520249
104.36453 14.516342 -1.1897798
104.55833 14.543227 -1.1995952
104.32795 14.506534 -1.1147447
104.52518 14.560214 -1.1622559
104.45687 14.562719 -1.1702664
104.6296 14.614631 -1.0872978
105.27801 15.174463 -2.1611063
105.7289 15.319769 -1.3570057
106.13961 15.49844 -1.4330438
106.56935 13.222819 -3.5939758
106.62812 13.308449 -3.5805225
106.73441 13.441048 -3.5695205
106.75897 13.562393 -3.5500288
107.30863 13.221144 -3.6236095
107.30674 13.468601 -3.6125417
107.04378 13.563133 -3.5897174
106.71209 13.668219 -3.549686
107.16287 13.584398 -3.5946169
106.57295 13.66545 -3.5571113
106.62729 13.68205 -3.5588295
106.62048 13.779483 -3.5576577
106.78716 13.714591 -3.5831656
106.68667 13.915836 -3.5576785
106.78886 13.787004 -3.5629573
106.66647 13.715872 -3.5581
106.87691 13.807434 -3.5767863
106.87144 13.611884 -3.5866582
106.92161 13.641388 -3.5798407
106.84949 13.763261 -3.5724738
106.91518 13.758803 -3.5662558
106.93701 13.947274 -3.5602121
107.10014 13.610015 -3.5916855
107.06456 13.679525 -3.5784559
106.68214 13.796419 -3.5656378
107.04769 13.926488 -3.5846248
107.14922 13.91459 -3.6003411
107.20963 13.94473 -3.5958555
107.36762 13.299948 -3.6318026
107.37244 13.348655 -3.6101148
107.64863 13.253156 -3.6495967
106.94808 13.879583 -3.5707409
107.41747 13.374755 -3.6118491
107.41743 13.464469 -3.6210437
107.46735 13.493419 -3.6185479
107.51351 13.316376 -3.6153615
107.57657 13.392377 -3.593653
107.35029 13.503988 -3.617496
107.43172 13.594994 -3.6222105
107.32462 13.418512 -3.5943255
107.64156 13.448084 -3.6202507
107.67459 13.481289 -3.6392219
107.43176 13.433324 -3.5824959
107.67796 13.560644 -3.6242511
107.67441 13.750845 -3.6229448
107.33941 13.660505 -3.5995359
107.68117 13.928576 -3.6086216
107.47721 13.880124 -3.6063378
107.78558 13.607388 -3.6062858
107.96439 13.752193 -3.6417954
107.96447 13.878299 -3.6259034
106.61927 14.142499 -3.5328548
108.06219 13.723396 -3.6218054
107.96168 13.678825 -3.6327014
108.00082 13.788407 -3.6309617
106.74207 14.077152 -3.5673361
107.70958 13.736125 -3.4044247
106.8939 14.034114 -3.5445364
106.9174 14.120563 -3.6681972
106.6945 14.202981 -3.5276964
106.69136 14.046748 -3.5480702
106.86402 14.095889 -3.5412881
106.88712 14.143785 -3.5689001
106.7794 14.019988 -3.5523012
106.73546 14.268859 -3.5193515
106.83938 14.03898 -3.5484276
107.24577 14.052261 -3.576642
106.81237 14.217331 -3.5420573
106.95776 14.084737 -3.5749052
106.98623 13.977589 -3.580117
106.88081 14.19342 -3.5615478
106.93364 14.233437 -3.561902
107.21122 14.01244 -3.583034
106.9494 14.180812 -3.5601008
106.99209 14.2537 -3.5584786
106.76213 14.646271 -3.5290146
107.20572 14.277287 -3.5630007
106.98878 14.370765 -3.5491147
106.69567 14.615346 -3.5192444
107.20193 14.537974 -3.5494196
106.81029 14.700139 -3.5211251
107.06435 14.614262 -3.5482495
107.28223 14.561637 -3.5602617
107.68963 14.100799 -3.5859907
107.1749 14.634641 -3.5597804
108.01412 14.010758 -3.6285522
107.49125 14.237832 -3.5840955
107.69165 14.323499 -3.5821309
107.41508 14.123325 -3.5855875
107.46815 14.359299 -3.5860608
107.91299 14.400815 -3.6033125
107.44882 14.483392 -3.574579
107.93291 14.581864 -3.5958872
108.0162 14.424237 -3.5978982
107.40798 14.566377 -3.5675871
107.77442 14.639078 -3.5776381
107.86708 14.360187 -3.6071663
107.88476 14.637797 -3.5896194
108.35007 13.308933 -3.668823
108.33469 13.395186 -3.6675735
108.21226 13.582457 -3.654094
108.27866 13.367206 -3.6553977
108.43872 13.265021 -3.6409671
108.40078 13.54703 -3.656359
108.45095 13.38711 -3.6636746
108.49085 13.291532 -3.6782873
108.61595 13.325325 -3.6844707
108.63413 13.250935 -3.6689274
108.71275 13.265366 -3.6866715
108.53744 13.398314 -3.6778457
108.3542 13.512844 -3.6595047
108.46609 13.43585 -3.6694827
108.18743 13.453901 -3.6493354
108.81712 13.227571 -3.7000911
108.77354 13.27781 -3.6773543
108.56736 13.483558 -3.6667311
108.81109 13.309124 -3.7042105
108.59755 13.531085 -3.676651
108.6692 13.391364 -3.6748164
108.65294 13.515687 -3.6802847
108.15901 13.669431 -3.63469
108.09759 13.835417 -3.6298473
108.20293 13.94345 -3.6342187
108.12488 13.767766 -3.6427605
108.3209 13.836514 -3.6293228
108.18903 13.790239 -3.6235209
108.27282 13.689423 -3.6325574
108.25908 13.78046 -3.6363239
108.41666 13.957864 -3.6328137
108.53716 13.621775 -3.6501954
108.56679 13.68498 -3.2828541
108.70708 13.629361 -3.677407
108.92217 13.252964 -3.7002969
108.90134 13.312645 -3.692302
108.52224 13.747703 -3.6580477
108.67962 13.868301 -3.6732562
108.71556 13.768524 -3.6769862
108.65824 13.747649 -3.6635606
109.00919 13.302664 -3.7005448
108.76028 13.91157 -3.6596627
108.82569 13.937918 -3.6606653
108.60484 13.69961 -3.6586628
108.96259 13.380651 -3.7020669
109.0191 13.364365 -3.703759
108.8185 13.70714 -3.6755862
108.81417 13.775934 -3.6752169
109.19968 13.229951 -3.7090533
108.49006 13.810863 -3.6393902
109.08449 13.346407 -3.6922386
108.47258 13.871123 -3.6504688
109.09627 13.437411 -3.7087708
109.16532 13.365805 -3.7095189
109.18521 13.431029 -3.6892812
109.12837 13.479703 -3.6818426
109.1857 13.501855 -3.7110171
109.52148 13.533732 -3.705265
109.58264 13.524003 -3.7108991
109.27596 13.544149 -3.7042718
108.98751 13.736486 -3.6924322
108.87867 13.677934 -3.6804678
109.35792 13.589689 -3.6931307
108.88701 13.742206 -3.6833467
109.04637 13.749704 -3.6752796
108.86739 13.812325 -3.671483
108.96891 13.789606 -3.681706
108.95816 13.873063 -3.669868
109.01908 13.848551 -3.6732297
109.44489 13.72666 -3.7007873
108.90118 13.952355 -3.6708145
109.50012 13.751853 -3.703635
109.07063 13.797789 -3.6926785
109.10681 13.836642 -3.6872256
109.07555 13.875898 -3.6734707
109.01071 13.939823 -3.6669195
109.24417 13.625978 -3.6916161
109.30522 13.669884 -3.690973
109.25942 13.822334 -3.6866689
109.45001 13.87489 -3.6875849
109.2147 13.766182 -3.6881227
109.31467 13.836492 -3.6915023
109.52504 13.847196 -3.6919663
109.543 13.932244 -3.6913226
109.33707 13.763908 -3.7089093
109.40908 13.907913 -3.6992016
109.24899 13.645879 -3.4518516
109.58886 13.812899 -3.4820499
108.28118 13.982121 -3.6232722
108.10303 14.056461 -3.6397605
108.45466 14.056386 -3.6340344
108.5897 13.994107 -3.6472139
108.1635 14.149614 -3.6207459
108.63013 14.052899 -3.6395721
108.39927 14.215507 -3.6297379
108.51418 14.092512 -3.6301556
108.67183 14.012673 -3.6512334
108.69663 14.06671 -3.6526196
108.6104 14.297608 -3.6444361
108.12908 14.213357 -3.6181908
108.74748 14.028418 -3.6705766
108.16726 14.247589 -3.6286604
108.69522 14.289843 -3.6389875
108.76572 14.074597 -3.6541395
108.72248 14.201353 -3.4314177
108.54568 14.260701 -3.6229818
108.1003 14.451358 -3.6065218
108.77921 14.278035 -3.6400836
108.82913 14.342947 -3.6454654
108.22678 14.49552 -3.6115954
108.48848 14.171437 -3.389823
108.39121 14.411815 -3.6142585
108.28059 14.51318 -3.6147661
108.39518 14.61541 -3.621088
108.61343 14.37899 -3.6295209
108.48767 14.542228 -3.6331713
108.49733 14.670363 -3.624835
108.93597 14.051259 -3.6601744
108.69568 14.372615 -3.6423564
108.85086 14.10092 -3.6702969
108.83019 14.706693 -3.6312237
108.77987 14.364469 -3.6456146
108.75342 14.406738 -3.6409953
108.82227 14.420146 -3.6464558
109.1944 14.00425 -3.6897647
109.20831 14.158187 -3.6702671
109.02695 14.23308 -3.6836827
109.2858 14.000136 -3.6945469
108.88382 14.212057 -3.6440084
109.41718 14.098445 -3.7065551
108.95002 14.189511 -3.6679115
109.37289 13.982208 -3.6965935
109.39201 14.326054 -3.672492
108.88764 14.367191 -3.6528268
109.10268 14.26623 -3.6750848
108.9943 14.438315 -3.6317329
109.50289 14.248336 -3.7035737
109.56252 14.220195 -3.6740367
109.1713 14.348126 -3.6525431
108.88361 14.454038 -3.6471658
109.4668 14.293137 -3.6918263
109.43198 14.355976 -3.6933696
109.33535 14.235684 -3.6814494
108.93668 14.494755 -3.6461904
108.88657 14.583534 -3.6413293
109.18035 14.720946 -3.6684437
109.19881 14.665939 -3.6467252
109.4385 14.434797 -3.6702206
108.99041 14.548727 -3.5283749
109.50699 14.475704 -3.6860013
109.30256 14.730048 -3.6492488
106.61155 14.923367 -3.520983
109.45835 14.696872 -3.6769371
109.37166 14.656442 -3.6703229
109.17075 14.219434 -3.1767745
107.25351 15.117621 -3.5331099
109.41241 14.576438 -3.6716766
107.45994 14.794977 -3.5598931
106.88372 14.846938 -3.5223434
107.53057 14.802117 -3.5726364
107.39109 14.857438 -3.5528002
107.05029 15.060272 -3.5165401
106.85427 15.068392 -3.5327578
107.91055 14.913147 -3.5803339
107.83436 15.078079 -3.5631812
107.86931 14.793091 -3.5788209
108.05518 14.741973 -3.5907145
107.60825 15.234611 -3.5503154
107.77483 14.99103 -3.5679319
107.73541 15.215439 -3.5352464
107.38925 15.179461 -3.5331686
107.8634 14.962794 -3.5679586
107.94919 15.289526 -3.5582438
107.5208 15.249965 -3.5612528
108.17485 15.106489 -3.5511775
108.37196 15.049695 -3.595171
108.24542 14.817415 -3.5932727
108.7657 14.777831 -3.6261115
108.25134 15.378313 -3.5571153
108.42103 14.738885 -3.6060054
108.70911 14.870669 -3.6233881
108.5564 15.126071 -3.5976181
108.12519 15.177223 -3.5774047
108.47464 15.286389 -3.5820994
108.78434 14.921005 -3.6233943
108.22845 15.141814 -3.5901258
108.98431 14.839167 -3.638658
108.60132 15.330624 -3.5980997
108.58455 14.943343 -3.6125882
108.37361 15.201828 -3.5698695
108.8134 15.419985 -3.5988688
109.09962 14.781911 -3.6439142
109.14742 14.817197 -3.6518798
108.92999 14.825761 -3.6323361
109.26365 14.803517 -3.6424165
109.44644 14.746146 -3.6639714
108.84322 14.939934 -3.6181321
108.92973 15.251355 -3.6221244
108.95043 14.967544 -3.629178
109.37985 14.790629 -3.649025
109.14833 15.25588 -3.619458
109.50215 14.754352 -3.6662757
109.14878 15.435139 -3.631964
108.36907 15.735723 -3.5691936
108.56371 15.547215 -3.5814109
109.48748 14.862187 -3.6631541
108.8222 15.636607 -3.5821373
109.22594 15.255941 -3.641784
109.55708 15.348613 -3.6461654
109.55968 14.91576 -3.6483719
109.5787 16.131725 -3.5747924
107.5225 14.628478 -0.72931671
107.38074 15.643269 -0.68923408
109.1599 15.359408 -0.75221491
103.87792 10.495971 -0.21195105
104.53613 13.170794 -0.6391297
104.68267 14.61585 -0.010631679
103.75941 14.992009 -0.46205512
103.98347 14.9285 -0.32050574
103.98584 14.855051 -0.42095771
104.76472 14.853201 -0.082637809
106.283 15.807963 -0.47303653
108.37943 13.369723 -0.23847704
106.88647 15.393785 -0.11292865
106.65731 15.605525 -0.091419511
108.10879 15.987255 -0.2172263
111.07685 12.176662 -1.8002168
109.64749 11.814816 -0.73065817
112.38538 12.582655 -1.4437255
111.66041 12.949819 -1.3438548
113.33398 13.14701 -3.5487325
109.62853 13.704803 -3.7066739
109.92947 13.972559 -3.7092669
109.60198 14.158368 -3.702811
109.67001 14.249206 -3.679935
109.61346 14.326164 -3.6857667
109.92378 14.026747 -3.7099488
109.66779 14.34712 -3.6894274
109.86591 14.232753 -3.7047772
109.95073 14.261342 -3.7011466
109.80717 14.337452 -3.7050307
109.85545 14.335009 -3.6876774
110.04282 14.31347 -3.6986175
110.09834 14.261641 -3.337678
109.65606 14.433691 -3.7073467
109.86309 14.629874 -3.6815085
109.60897 14.522178 -3.6902685
109.80499 14.593397 -3.6619103
109.75879 14.458321 -3.6810267
109.91576 14.624249 -3.6910889
109.96119 14.67809 -3.6922631
110.19862 14.455275 -3.6663127
110.24432 14.474967 -3.7095244
110.08134 14.450183 -3.7078526
109.98582 14.529922 -3.6998293
110.21764 14.487651 -3.3268163
110.12291 14.596272 -3.6914041
110.43336 14.589085 -3.6910317
110.73396 14.607782 -3.3395469
110.79203 14.649319 -3.3513422
110.11375 14.543287 -3.2897165
112.02805 14.396475 -3.5622268
109.62597 14.88478 -3.662853
109.74237 14.865188 -3.6615512
109.67937 14.988174 -3.6654112
110.09612 14.92982 -3.7086496
110.07034 14.965882 -3.6730042
110.14386 14.932673 -3.6789794
110.10272 15.015654 -3.6918466
110.17521 14.977378 -3.6916559
110.33797 14.913514 -3.6987512
110.23092 15.023925 -3.6953304
110.29259 15.049769 -3.6883545
109.61491 15.355423 -3.6646912
109.97874 14.838124 -3.4312389
109.79914 15.411408 -3.6453352
109.69982 15.115469 -3.6531186
109.73743 15.278699 -3.6378973
109.98065 15.297956 -3.6512382
110.34691 15.134971 -3.6972179
110.22437 15.382123 -3.6676075
110.23628 15.262098 -3.6849878
110.16753 15.486466 -3.665164
110.02909 15.459955 -3.6542664
110.36724 14.781961 -3.6889119
