# .PCD v0.7 - Point Cloud Data file format
VERSION 0.7
FIELDS x y z rgb
SIZE 4 4 4 4
TYPE F F F U
COUNT 1 1 1 1
WIDTH 1148
HEIGHT 1
VIEWPOINT 0 0 0 1 0 0 0
POINTS 1148
DATA ascii
142.89781 31.062687 -4.2445688 4294901760
142.91588 31.071264 -4.2445688 4294901760
142.89742 31.063522 -4.2245903 4294901760
143.2863 31.229795 -4.2766466 4294901760
143.26622 31.226028 -4.2570877 4294901760
143.2847 31.233656 -4.2570877 4294901760
143.30319 31.241283 -4.2570877 4294901760
143.28311 31.237516 -4.2375283 4294901760
143.73512 31.437754 -4.2508597 4294901760
143.71721 31.428833 -4.2308736 4294901760
143.73543 31.437073 -4.2308736 4294901760
143.75365 31.445314 -4.2308736 4294901760
143.73573 31.436394 -4.2108874 4294901760
155.46588 30.998478 -4.3700328 4285961595
155.4483 30.988722 -4.3501186 4285961595
155.46648 30.997097 -4.3500876 4285961595
155.48468 31.005388 -4.3500624 4285961595
155.46703 30.995811 -4.3301363 4285961595
155.79829 31.112967 -4.268961 4285961595
155.77963 31.105633 -4.2489991 4285961595
155.79866 31.111799 -4.2489991 4285961595
155.81769 31.117966 -4.2489991 4285961595
155.79904 31.11063 -4.2290368 4285961595
156.28363 31.400452 -4.2709789 4294901760
156.2637 31.398476 -4.2510018 4294901760
156.28349 31.40139 -4.2510018 4294901760
156.30328 31.404305 -4.2510018 4294901760
156.28336 31.40233 -4.2310243 4294901760
156.61992 31.480951 -4.2657967 4294901760
156.60068 31.475473 -4.2458034 4294901760
156.62004 31.480455 -4.2458034 4294901760
156.6394 31.485435 -4.2458034 4294901760
156.62016 31.479959 -4.2258096 4294901760
143.93155 31.512226 -4.2475281 4294901760
143.91307 31.504562 -4.2275357 4294901760
143.93132 31.51273 -4.2275357 4294901760
143.94958 31.520897 -4.2275357 4294901760
143.93111 31.513231 -4.2075429 4294901760
144.27238 31.661158 -4.2726231 4294901760
144.25284 31.656195 -4.2527933 4294901760
144.27142 31.66358 -4.2527933 4294901760
144.29001 31.670965 -4.2527933 4294901760
144.27046 31.666002 -4.2329636 4294901760
144.75912 31.881298 -4.2577887 4282927843
144.78389 31.8706 -4.249301 4282927843
144.76495 31.864155 -4.249301 4282927843
144.74602 31.85771 -4.249301 4282927843
144.77078 31.847012 -4.2408133 4282927843
145.0816 31.98152 -4.2713003 4282927843
145.06392 31.967216 -4.25104 4282927843
145.08253 31.976488 -4.2511744 4282927843
145.10109 31.986092 -4.251317 4282927843
145.08344 31.971663 -4.2310534 4282927843
152.04102 32.073952 -4.3994212 4294901760
152.01961 32.072479 -4.3809915 4294901760
152.03871 32.066536 -4.3809915 4294901760
152.0578 32.060589 -4.3809915 4294901760
152.03639 32.059116 -4.3625622 4294901760
156.31911 31.542875 -4.3679957 4294901760
156.30786 31.502399 -4.3501682 4294901760
156.32126 31.533504 -4.3485346 4294901760
156.33568 31.560127 -4.3471756 4294901760
156.3237 31.522873 -4.3291512 4294901760
156.82983 31.541452 -4.2797294 4285961595
156.8116 31.533224 -4.2597313 4285961595
156.82996 31.541193 -4.2597313 4285961595
156.8483 31.54916 -4.2597313 4285961595
156.83006 31.540934 -4.2397332 4285961595
157.28047 31.726467 -4.2518306 4285961595
157.26184 31.719172 -4.2318478 4285961595
157.28075 31.725679 -4.2318478 4285961595
157.29965 31.732187 -4.2318478 4285961595
157.28102 31.724892 -4.2118649 4285961595
157.74628 31.925203 -4.263041 4285961595
157.7296 31.914047 -4.2430983 4285961595
157.74701 31.923891 -4.2430983 4285961595
157.76442 31.933735 -4.2430983 4285961595
157.74776 31.922577 -4.223155 4285961595
144.73349 31.944809 -4.3249779 4282927843
144.7135 31.950472 -4.3057938 4282927843
144.73349 31.950464 -4.3057938 4282927843
144.75349 31.950455 -4.3057938 4282927843
144.73349 31.956118 -4.2866096 4282927843
145.2993 32.111507 -4.2745633 4282927843
145.28262 32.100445 -4.2545733 4282927843
145.29964 32.11097 -4.2545733 4282927843
145.31665 32.121494 -4.2545733 4282927843
145.29997 32.110432 -4.2345834 4282927843
145.77409 32.292057 -4.2597136 4294901760
145.75711 32.281425 -4.2397542 4294901760
145.77335 32.293098 -4.2397542 4294901760
145.78958 32.304771 -4.2397542 4294901760
145.7726 32.294136 -4.2197952 4294901760
146.14024 32.489208 -4.2419276 4294901760
146.12149 32.482246 -4.2219405 4294901760
146.14047 32.488537 -4.2219405 4294901760
146.15945 32.494827 -4.2219405 4294901760
146.1407 32.487862 -4.2019529 4294901760
151.91499 32.141026 -4.4624925 4294901760
151.89359 32.139553 -4.4440632 4294901760
151.91269 32.13361 -4.4440632 4294901760
151.93178 32.127666 -4.4440632 4294901760
151.91037 32.12619 -4.4256339 4294901760
152.10207 32.081421 -4.4593811 4294901760
152.08067 32.079948 -4.4409518 4294901760
152.09976 32.074001 -4.4409518 4294901760
152.11885 32.068058 -4.4409518 4294901760
152.09746 32.066586 -4.4225225 4294901760
157.93181 32.051285 -4.2570481 4294901760
157.95644 32.037903 -4.2532711 4294901760
157.93721 32.032402 -4.2532711 4294901760
157.91798 32.026901 -4.2532711 4294901760
157.94261 32.013519 -4.2494941 4294901760
158.27786 32.152916 -4.2771659 4285961595
158.25949 32.14484 -4.2572298 4285961595
158.27838 32.151409 -4.2572298 4285961595
158.29727 32.157978 -4.2572298 4285961595
158.2789 32.149902 -4.2372937 4285961595
158.77991 32.35017 -4.2616305 4285961595
158.76215 32.34087 -4.2416835 4285961595
158.78049 32.348835 -4.2416835 4285961595
158.79883 32.3568 -4.2416835 4285961595
158.78107 32.3475 -4.2217364 4285961595
159.11005 32.492519 -4.2291393 4285961595
159.09274 32.482197 -4.2092905 4285961595
159.11104 32.490276 -4.2092905 4285961595
159.12933 32.49836 -4.2092905 4285961595
159.11203 32.488033 -4.1894412 4285961595
145.95799 32.549572 -4.1174436 4294901760
145.93031 32.565838 -4.0949602 4294901760
145.94879 32.573494 -4.0949116 4294901760
145.96713 32.581516 -4.0948253 4294901760
145.94104 32.593658 -4.072763 4294901760
146.37759 32.590256 -4.2591562 4294901760
146.35834 32.58469 -4.2391901 4294901760
146.37785 32.589115 -4.2391901 4294901760
146.39735 32.59354 -4.2391901 4294901760
146.37811 32.587975 -4.2192245 4294901760
146.76656 32.718273 -4.2775617 4294901760
146.74715 32.712795 -4.2577295 4294901760
146.76553 32.72065 -4.2577295 4294901760
146.78392 32.728504 -4.2577295 4294901760
146.76451 32.723026 -4.2378974 4294901760
147.25717 32.912121 -4.269855 4294901760
147.24054 32.900997 -4.2498603 4294901760
147.25743 32.911724 -4.2498603 4294901760
147.27431 32.922451 -4.2498603 4294901760
147.25768 32.911331 -4.229866 4294901760
155.19907 32.964771 -4.4942527 4294901760
155.20308 32.944077 -4.4753919 4294901760
155.19327 32.961506 -4.4753919 4294901760
155.18346 32.978939 -4.4753919 4294901760
155.18747 32.958244 -4.456531 4294901760
159.32368 32.594658 -4.2744389 4285961595
159.30569 32.585838 -4.2544775 4285961595
159.32417 32.59351 -4.2544775 4285961595
159.34264 32.601181 -4.2544775 4285961595
159.32465 32.592361 -4.2345161 4285961595
159.76207 32.76659 -4.277741 4285961595
159.74403 32.757797 -4.2578063 4285961595
159.76265 32.765091 -4.2578063 4285961595
159.78128 32.772381 -4.2578063 4285961595
159.76324 32.763588 -4.2378716 4285961595
160.20407 32.957947 -4.2806134 4285961595
160.18611 32.949104 -4.260632 4285961595
160.20442 32.957153 -4.260632 4285961595
160.22273 32.965202 -4.260632 4285961595
160.20477 32.95636 -4.2406511 4285961595
160.66597 33.088577 -4.1790895 4285961595
160.64665 33.083382 -4.1590919 4285961595
160.66589 33.088875 -4.1590919 4285961595
160.68512 33.094368 -4.1590919 4285961595
160.6658 33.089172 -4.1390944 4285961595
147.46501 33.018379 -4.2980418 4294901760
147.44734 33.008831 -4.2781281 4294901760
147.46573 33.016674 -4.2781281 4294901760
147.48413 33.024513 -4.2781281 4294901760
147.46646 33.014965 -4.258214 4294901760
147.77295 33.146774 -4.2751603 4279104987
147.75414 33.139896 -4.2551823 4279104987
147.77322 33.145874 -4.2551823 4279104987
147.79231 33.151852 -4.2551823 4279104987
147.7735 33.144974 -4.2352042 4279104987
148.27121 33.360786 -4.2571974 4279104987
148.25615 33.342022 -4.2423291 4279104987
148.27522 33.348026 -4.2423291 4279104987
148.2943 33.354031 -4.2423291 4279104987
148.27924 33.335266 -4.2274609 4279104987
148.63156 33.49612 -4.2630234 4279104987
148.61281 33.487751 -4.2435737 4279104987
148.63245 33.491547 -4.2435737 4279104987
148.65208 33.495342 -4.2435737 4279104987
148.63333 33.486973 -4.224124 4279104987
154.94194 33.190357 -4.4723363 4294901760
154.92181 33.19453 -4.4529223 4294901760
154.9399 33.186008 -4.4529223 4294901760
154.95799 33.177486 -4.4529223 4294901760
154.93785 33.181664 -4.4335079 4294901760
155.16058 33.127586 -4.4919744 4294901760
155.15996 33.157574 -4.4699702 4294901760
155.1725 33.141483 -4.4703197 4294901760
155.18292 33.122913 -4.4709511 4294901760
155.18645 33.157757 -4.4483948 4294901760
160.41058 33.006706 -4.3074136 4285961595
160.39319 32.995579 -4.2880836 4285961595
160.41219 33.001827 -4.2880836 4285961595
160.43118 33.00808 -4.2880836 4285961595
160.41379 32.996952 -4.2687535 4285961595
160.7748 33.104259 -4.3154736 4285961595
160.75592 33.094852 -4.2966332 4285961595
160.77573 33.09761 -4.2966332 4285961595
160.79553 33.100372 -4.2966332 4285961595
160.77666 33.090965 -4.2777925 4285961595
161.2309 33.397781 -4.2775106 4278991905
161.21214 33.390797 -4.257525 4278991905
161.23114 33.397057 -4.257525 4278991905
161.25014 33.403316 -4.257525 4278991905
161.23137 33.396332 -4.2375398 4278991905
161.56512 33.518776 -4.1974988 4278991905
161.54736 33.509388 -4.1775713 4278991905
161.56567 33.517418 -4.1775494 4278991905
161.584 33.525463 -4.177527 4278991905
161.5663 33.515942 -4.1576071 4278991905
148.29605 33.401848 -4.4591675 4279104987
148.27573 33.403622 -4.4395733 4279104987
148.29561 33.40583 -4.4395733 4279104987
148.31549 33.408043 -4.4395733 4279104987
148.29517 33.409813 -4.4199791 4279104987
148.83508 33.57365 -4.2557988 4279104987
148.81705 33.565022 -4.2357993 4279104987
148.83514 33.57354 -4.2357993 4279104987
148.85324 33.582058 -4.2357993 4279104987
148.83519 33.573429 -4.2157998 4279104987
149.25156 33.770008 -4.2671351 4279104987
149.23331 33.761806 -4.2471466 4279104987
149.25182 33.769386 -4.2471466 4279104987
149.27032 33.776962 -4.2471466 4279104987
149.25208 33.768761 -4.2271581 4279104987
149.65176 33.9352 -4.2441096 4279104987
149.63367 33.92664 -4.2241206 4279104987
149.65202 33.934586 -4.2241206 4279104987
149.67038 33.942532 -4.2241206 4279104987
149.65228 33.933975 -4.2041316 4279104987
150.2202 33.971561 -4.0511312 4294901760
150.20724 33.950218 -4.0337276 4294901760
150.21922 33.973972 -4.0302134 4294901760
150.22896 34.003277 -4.0255013 4294901760
150.21846 33.975868 -4.0094066 4294901760
154.94278 33.95224 -4.4194736 4294901760
154.95303 33.934593 -4.3998909 4294901760
154.94662 33.953541 -4.3998909 4294901760
154.94022 33.972485 -4.3998909 4294901760
154.95049 33.954842 -4.3803082 4294901760
155.07355 33.883442 -4.4555421 4294901760
155.06172 33.900467 -4.4363008 4294901760
155.07706 33.887623 -4.4363008 4294901760
155.09238 33.874779 -4.4363008 4294901760
155.08055 33.891808 -4.4170599 4294901760
161.43497 33.501175 -4.340498 4278991905
161.41829 33.489204 -4.320857 4278991905
161.43681 33.49678 -4.3208737 4278991905
161.45535 33.504272 -4.3208995 4278991905
161.43884 33.49194 -4.3012981 4278991905
161.79463 33.620113 -4.283783 4278991905
161.77658 33.61145 -4.2638097 4278991905
161.79503 33.619164 -4.2638097 4278991905
161.81349 33.626877 -4.2638097 4278991905
161.79543 33.618214 -4.2438359 4278991905
162.27917 33.824799 -4.259315 4278991905
162.26051 33.817509 -4.2393465 4278991905
162.27953 33.823734 -4.2393465 4278991905
162.29854 33.82996 -4.2393465 4278991905
162.27988 33.82267 -4.219378 4278991905
162.63269 33.96254 -4.2567968 4278991905
162.61296 33.958595 -4.2369161 4278991905
162.63203 33.964615 -4.2369161 4278991905
162.65111 33.970638 -4.2369161 4278991905
162.63138 33.966694 -4.2170348 4278991905
149.8877 34.053089 -4.290812 4279104987
149.8699 34.042744 -4.27109 4279104987
149.88736 34.054234 -4.27069 4279104987
149.90488 34.065521 -4.2703037 4279104987
149.88701 34.055435 -4.2505641 4279104987
150.26904 34.214607 -4.2663755 4279104987
150.25026 34.207455 -4.2462978 4279104987
150.26749 34.217731 -4.2462449 4279104987
150.28473 34.227966 -4.2461934 4279104987
150.26595 34.220833 -4.2261152 4279104987
150.72118 34.415691 -4.2839413 4279104987
150.70003 34.413994 -4.2644315 4279104987
150.71855 34.421551 -4.26438 4279104987
150.73714 34.428986 -4.2643185 4279104987
150.71582 34.427666 -4.2448406 4279104987
151.00963 34.524422 -4.1651406 4279104987
150.98198 34.538254 -4.1439772 4279104987
151.01257 34.517494 -4.1454811 4279104987
151.04317 34.49675 -4.1469841 4279104987
151.0152 34.511368 -4.1257801 4279104987
154.88881 34.265129 -4.3772111 4294901760
154.89656 34.246338 -4.3575377 4294901760
154.89233 34.265888 -4.3575377 4294901760
154.88811 34.285439 -4.3575377 4294901760
154.89586 34.266647 -4.3378639 4294901760
162.86021 34.054642 -4.2729316 4278991905
162.84157 34.047337 -4.2529569 4278991905
162.8598 34.055565 -4.2529569 4278991905
162.87802 34.063793 -4.2529569 4278991905
162.85938 34.056484 -4.2329822 4278991905
163.27394 34.236042 -4.2643261 4278991905
163.25549 34.228271 -4.2443385 4278991905
163.2742 34.235382 -4.2443385 4278991905
163.29289 34.242493 -4.2443385 4278991905
163.27444 34.234722 -4.2243509 4278991905
163.73157 34.413841 -4.2687988 4278991905
163.7131 34.40612 -4.248806 4278991905
163.73175 34.413342 -4.248806 4278991905
163.75041 34.420559 -4.248806 4278991905
163.73195 34.412842 -4.2288132 4278991905
164.00464 34.543037 -4.3511977 4278991905
163.98729 34.532776 -4.3313551 4278991905
164.00563 34.540741 -4.3313551 4278991905
164.02399 34.548706 -4.3313551 4278991905
164.00664 34.538445 -4.311512 4278991905
150.92911 34.47216 -4.3268919 4279104987
150.916 34.451817 -4.3066802 4279104987
150.90471 34.529869 -4.3078523 4279104987
150.8936 34.607494 -4.3090172 4279104987
150.8791 34.590393 -4.2888594 4279104987
151.29936 34.640114 -4.2677274 4279104987
151.28061 34.633156 -4.2477274 4279104987
151.29938 34.640095 -4.2477274 4279104987
151.31813 34.64703 -4.2477274 4279104987
151.29938 34.640072 -4.2277274 4279104987
151.7795 34.847202 -4.2547302 4279104987
151.76129 34.838772 -4.2347903 4279104987
151.78003 34.845753 -4.2347903 4279104987
151.79877 34.852734 -4.2347903 4279104987
151.78056 34.844303 -4.2148504 4279104987
152.12772 34.993694 -4.232408 4279104987
152.11021 34.983833 -4.2124977 4279104987
152.12848 34.991966 -4.2124977 4279104987
152.14676 35.000103 -4.2124977 4279104987
152.12926 34.990242 -4.1925869 4279104987
154.94896 34.556904 -4.4203115 4294901760
154.94185 34.537701 -4.4008064 4294901760
154.95268 34.554508 -4.4008064 4294901760
154.96352 34.57132 -4.4008064 4294901760
154.95639 34.552113 -4.3813009 4294901760
155.10321 34.83746 -4.4444661 4294901760
155.08676 34.825558 -4.424777 4294901760
155.10069 34.839905 -4.424777 4294901760
155.11462 34.854256 -4.424777 4294901760
155.09818 34.842354 -4.4050884 4294901760
163.92973 34.549244 -4.2925324 4278991905
163.90942 34.545948 -4.2723479 4278991905
163.9305 34.547409 -4.2725911 4278991905
163.95168 34.548588 -4.2728453 4278991905
163.9313 34.545471 -4.2526536 4278991905
164.27097 34.660038 -4.2709718 4278991905
164.25339 34.650463 -4.2509961 4278991905
164.27139 34.659157 -4.2509961 4278991905
164.2894 34.66785 -4.2509961 4278991905
164.27182 34.658272 -4.23102 4278991905
164.75722 34.859966 -4.2665858 4278991905
164.73933 34.850948 -4.2466073 4278991905
164.7576 34.859127 -4.2466073 4278991905
164.77585 34.867306 -4.2466073 4278991905
164.75797 34.858288 -4.2266283 4278991905
165.09937 35.008221 -4.255991 4278991905
165.0806 35.001274 -4.2359962 4278991905
165.0992 35.008644 -4.2359962 4278991905
165.11778 35.016014 -4.2359962 4278991905
165.09903 35.009071 -4.2160015 4278991905
152.34752 35.081558 -4.2895947 4279104987
152.32942 35.073009 -4.2696071 4279104987
152.34779 35.080917 -4.2696071 4279104987
152.36617 35.088821 -4.2696071 4279104987
152.34807 35.080276 -4.249619 4279104987
152.75827 35.259129 -4.2604771 4279104987
152.74008 35.25071 -4.2405214 4279104987
152.75876 35.257885 -4.2405214 4279104987
152.77742 35.26506 -4.2405214 4279104987
152.75923 35.256638 -4.2205663 4279104987
153.19713 35.450584 -4.2596359 4279104987
153.17949 35.441067 -4.2396698 4279104987
153.19762 35.449524 -4.2396698 4279104987
153.21574 35.457977 -4.2396698 4279104987
153.1981 35.448463 -4.2197042 4279104987
155.2238 35.059395 -4.4668465 4294901760
155.21609 35.040638 -4.4471335 4294901760
155.22052 35.060143 -4.4471335 4294901760
155.22495 35.079647 -4.4471335 4294901760
155.21722 35.06089 -4.4274206 4294901760
164.98993 35.014725 -4.4194226 4278991905
164.97307 35.003273 -4.3995633 4278991905
164.99156 35.010895 -4.3995738 4278991905
165.01004 35.018574 -4.3995814 4278991905
164.99352 35.006344 -4.3797565 4278991905
165.31734 35.099182 -4.2854757 4278991905
165.29953 35.08984 -4.2655687 4278991905
165.31773 35.098194 -4.2655039 4278991905
165.33597 35.106461 -4.2654448 4278991905
165.31813 35.097187 -4.245533 4278991905
165.75935 35.271744 -4.2695971 4278991905
165.74101 35.263702 -4.249629 4278991905
165.75975 35.270687 -4.249629 4278991905
165.77849 35.277672 -4.249629 4278991905
165.76015 35.269627 -4.229661 4278991905
166.19519 35.464169 -4.2225633 4294901760
166.17798 35.453682 -4.2027159 4294901760
166.19621 35.461918 -4.2027159 4294901760
166.21443 35.470154 -4.2027159 4294901760
166.19724 35.459667 -4.182869 4294901760
166.73201 35.516769 -4.0864239 4294901760
166.71872 35.50135 -4.0667906 4294901760
166.72871 35.518673 -4.0667906 4294901760
166.73871 35.535995 -4.0667906 4294901760
166.7254 35.52058 -4.0471573 4294901760
153.37436 35.524372 -4.2744808 4279104987
153.3566 35.515007 -4.2545524 4279104987
153.37502 35.52282 -4.2545524 4279104987
153.39342 35.530628 -4.2545524 4279104987
153.37567 35.521263 -4.2346234 4279104987
153.7635 35.660282 -4.2678733 4279104987
153.74431 35.654652 -4.2478733 4279104987
153.76352 35.660244 -4.2478733 4279104987
153.78271 35.665836 -4.2478733 4279104987
153.76352 35.660202 -4.2278733 4279104987
154.23874 35.946407 -4.2707024 4279104987
154.21889 35.942993 -4.2508421 4279104987
154.23807 35.948673 -4.2508421 4279104987
154.25725 35.954353 -4.2508421 4279104987
154.2374 35.950935 -4.2309818 4279104987
154.51918 36.001995 -4.3167357 4279104987
154.5022 35.99091 -4.2970185 4279104987
154.52052 35.998924 -4.2970185 4279104987
154.53885 36.006939 -4.2970185 4279104987
154.52187 35.995857 -4.2773013 4279104987
166.35458 35.586273 -4.2515531 4294901760
166.37921 35.574604 -4.2439971 4294901760
166.36014 35.568607 -4.2439971 4294901760
166.34106 35.562611 -4.2439971 4294901760
166.36569 35.550941 -4.2364411 4294901760
166.7841 35.644554 -4.270751 4294901760
166.76471 35.63903 -4.2509079 4294901760
166.78448 35.642082 -4.2509079 4294901760
166.80424 35.645134 -4.2509079 4294901760
166.78487 35.63961 -4.2310648 4294901760
167.25981 35.899948 -4.2616715 4294901760
167.2565 35.849663 -4.2420959 4294901760
167.2606 35.897739 -4.2416925 4294901760
167.26683 35.939857 -4.2413468 4294901760
167.26134 35.895668 -4.2217116 4294901760
167.52318 35.956146 -4.2501144 4290065961
167.55563 35.930241 -4.2475576 4290065961
154.48605 36.042633 -4.4396653 4294901760
154.46986 36.030403 -4.4193525 4294901760
154.48871 36.037506 -4.4191751 4294901760
154.50725 36.045193 -4.4190469 4294901760
154.49223 36.03072 -4.3985438 4294901760
154.80428 36.102814 -4.2638402 4294901760
154.79941 36.117138 -4.2434459 4294901760
154.79489 36.130447 -4.2230792 4294901760
155.62749 36.448105 -4.2447257 4291625287
155.60854 36.44165 -4.22475 4291625287
155.62776 36.447159 -4.22475 4291625287
155.64699 36.452663 -4.22475 4291625287
155.62802 36.446209 -4.2047744 4291625287
155.9917 36.589794 -4.1957116 4291625287
155.97325 36.582054 -4.1757174 4291625287
155.99187 36.589348 -4.1757174 4291625287
156.0105 36.596645 -4.1757174 4291625287
155.99205 36.588905 -4.1557231 4291625287
167.45242 36.039532 -4.2506552 4290065961
167.49995 35.977432 -4.2453432 4290065961
167.78706 36.115284 -4.2712297 4290065961
167.80492 36.124382 -4.2711763 4290065961
167.8222 36.134766 -4.2710614 4290065961
168.26236 36.297215 -4.2637095 4290065961
168.244 36.289185 -4.2437434 4290065961
168.26277 36.296124 -4.2437434 4290065961
168.28152 36.303066 -4.2437434 4290065961
168.26317 36.295036 -4.2237773 4290065961
168.66577 36.469074 -4.2334023 4290065961
168.6481 36.459557 -4.2134757 4290065961
168.66646 36.467499 -4.2134757 4290065961
168.68481 36.475441 -4.2134757 4290065961
168.66714 36.465923 -4.1935496 4290065961
155.86597 36.54068 -4.2781258 4291625287
155.84837 36.530766 -4.258317 4291625287
155.86697 36.538113 -4.258317 4291625287
155.88557 36.545464 -4.258317 4294901760
155.868 36.535549 -4.2385082 4291625287
156.27092 36.760654 -4.26263 4291625287
156.2961 36.752716 -4.2524638 4291625287
156.27771 36.744827 -4.2524638 4291625287
156.25934 36.736938 -4.2524638 4291625287
156.2845 36.729 -4.2422976 4291625287
156.70561 36.9119 -4.2416453 4291625287
156.72304 36.921967 -4.241631 4291625287
156.73969 36.933819 -4.2416043 4291625287
156.99654 37.038429 -4.155591 4291625287
156.97981 37.026379 -4.1357617 4291625287
156.99818 37.034313 -4.1357417 4291625287
157.01666 37.041962 -4.1357331 4291625287
156.9996 37.030785 -4.115869 4291625287
168.87701 36.561089 -4.2901678 4290065961
168.85999 36.550274 -4.2703404 4290065961
168.87811 36.558712 -4.2703404 4290065961
168.89624 36.56715 -4.2703404 4290065961
168.87923 36.556335 -4.2505131 4290065961
169.26886 36.740322 -4.2635384 4290065961
169.25414 36.723579 -4.2461329 4290065961
169.27261 36.731216 -4.2461329 4290065961
169.29109 36.738853 -4.2461329 4290065961
169.27637 36.722111 -4.2287273 4290065961
169.71756 36.913479 -4.2610335 4290065961
169.69925 36.905437 -4.241025 4290065961
169.71811 36.912144 -4.2410851 4290065961
169.73698 36.918816 -4.2411475 4290065961
169.71864 36.910847 -4.2211337 4290065961
170.00084 37.038734 -4.2522421 4290065961
169.98224 37.031353 -4.2322445 4290065961
170.00072 37.039021 -4.2322445 4290065961
170.01918 37.046688 -4.2322445 4290065961
170.0006 37.03931 -4.2122469 4290065961
156.88516 37.025066 -4.3071189 4291625287
156.86922 37.010857 -4.287159 4291625287
156.87988 37.038715 -4.2870393 4291625287
156.89082 37.065865 -4.2869234 4291625287
156.87469 37.05212 -4.2669611 4291625287
157.28143 37.166222 -4.2601924 4291625287
157.26358 37.157066 -4.2402673 4291625287
157.28209 37.164619 -4.2402673 4291625287
157.30061 37.172173 -4.2402673 4291625287
157.28275 37.163017 -4.2203426 4291625287
158.106 37.489147 -4.2608609 4294901760
158.084 37.490135 -4.2431145 4294901760
158.10252 37.497688 -4.2431145 4294901760
158.12103 37.505241 -4.2431145 4294901760
158.09903 37.506229 -4.2253685 4294901760
169.89818 37.065002 -4.3165841 4290065961
169.88855 37.038445 -4.2984724 4290065961
169.90657 37.047112 -4.2984533 4290065961
169.92451 37.055958 -4.2984142 4290065961
169.91562 37.027805 -4.2804785 4290065961
170.26888 37.152096 -4.2652497 4290065961
170.25089 37.143246 -4.2452979 4290065961
170.26939 37.150814 -4.2452979 4290065961
170.2879 37.158386 -4.2452979 4290065961
170.26991 37.149536 -4.2253456 4290065961
170.76346 37.402729 -4.2701726 4290065961
170.74347 37.401344 -4.2501998 4290065961
170.76332 37.403763 -4.2501998 4290065961
170.78317 37.406181 -4.2501998 4290065961
170.7632 37.404797 -4.230227 4290065961
171.15105 37.507683 -4.225966 4294901760
171.13318 37.49865 -4.2059932 4294901760
171.15146 37.506733 -4.2059932 4294901760
171.16975 37.514812 -4.2059932 4294901760
171.15189 37.505779 -4.1860204 4294901760
158.31851 37.58226 -4.2771087 4294901760
158.30083 37.572823 -4.2571526 4294901760
158.31906 37.581055 -4.2571526 4294901760
158.33728 37.589287 -4.2571526 4294901760
158.3196 37.579849 -4.237196 4294901760
158.77534 37.774406 -4.2712917 4294901760
158.75696 37.766476 -4.2513103 4294901760
158.77565 37.773602 -4.2513103 4294901760
158.79434 37.780727 -4.2513103 4294901760
158.77596 37.772793 -4.231329 4294901760
159.16869 37.948612 -4.251102 4278365341
159.15112 37.938919 -4.2311721 4278365341
159.16937 37.947083 -4.2311721 4278365341
159.18764 37.955246 -4.2311721 4278365341
159.17006 37.945557 -4.2112422 4278365341
171.32928 37.580502 -4.2919679 4290065961
171.31204 37.570168 -4.2720757 4290065961
171.33017 37.578621 -4.2720757 4290065961
171.3483 37.58707 -4.2720757 4290065961
171.33104 37.57674 -4.2521839 4290065961
171.75626 37.81554 -4.2459021 4290065961
171.73965 37.802979 -4.2267642 4290065961
171.75833 37.810112 -4.2267642 4290065961
171.77702 37.817249 -4.2267642 4290065961
171.76041 37.804688 -4.2076268 4290065961
172.58125 37.971085 -4.2794757 4292229333
172.55312 37.970474 -4.2766266 4292229333
172.56702 37.984848 -4.2766266 4292229333
172.58093 37.999222 -4.2766266 4292229333
172.5528 37.998611 -4.273778 4292229333
159.38818 38.041439 -4.3197083 4278365341
159.37041 38.032185 -4.299747 4278365341
159.38869 38.040306 -4.299747 4278365341
159.40697 38.048428 -4.299747 4278365341
159.38919 38.039173 -4.2797856 4278365341
160.2563 38.428688 -4.267014 4278365341
160.23792 38.420502 -4.2471375 4278365341
160.25697 38.426571 -4.2471375 4278365341
160.27603 38.432644 -4.2471375 4278365341
160.25764 38.424458 -4.2272611 4278365341
160.528 38.498356 -4.203887 4278365341
160.51103 38.487148 -4.1840405 4278365341
160.53249 38.487751 -4.1844106 4278365341
160.55392 38.4884 -4.1847782 4278365341
160.5368 38.477551 -4.1649132 4278365341
172.41635 38.047123 -4.2548122 4292229333
172.38821 38.046513 -4.2519636 4292229333
172.40213 38.060886 -4.2519636 4292229333
172.41603 38.07526 -4.2519636 4292229333
172.38789 38.07465 -4.2491145 4292229333
172.78011 38.169937 -4.2870755 4292229333
172.76256 38.160152 -4.2671733 4292229333
172.7809 38.168129 -4.2671733 4292229333
172.79924 38.176102 -4.2671733 4292229333
172.78168 38.166317 -4.2472711 4292229333
173.23257 38.379745 -4.2559586 4292229333
173.21458 38.370766 -4.2360659 4292229333
173.23331 38.377808 -4.2360659 4292229333
173.25203 38.384846 -4.2360659 4292229333
173.23404 38.37587 -4.2161732 4292229333
173.63371 38.491718 -4.2846737 4292229333
173.61768 38.463474 -4.2624373 4292229333
173.63634 38.473969 -4.2630844 4292229333
173.65486 38.48542 -4.263813 4292229333
173.6394 38.453232 -4.24124 4292229333
174.0047 38.637638 -4.4185772 4292229333
173.98659 38.628956 -4.3986516 4292229333
174.00529 38.636028 -4.3986516 4292229333
174.024 38.643097 -4.3986516 4292229333
174.00591 38.634418 -4.3787255 4292229333
160.45673 38.522442 -4.3267765 4278365341
160.44049 38.509186 -4.3068895 4278365341
160.45934 38.515923 -4.3069038 4278365341
160.47815 38.522724 -4.3069167 4278365341
160.46223 38.508686 -4.287046 4278365341
160.78827 38.637829 -4.2633281 4278365341
160.77037 38.628895 -4.243341 4278365341
160.78857 38.637169 -4.243341 4278365341
160.80678 38.645447 -4.243341 4278365341
160.78886 38.636513 -4.2233539 4278365341
161.25809 38.830959 -4.2523861 4278365341
161.2397 38.822994 -4.2324214 4278365341
161.2585 38.829842 -4.2324214 4278365341
161.2773 38.836689 -4.2324214 4278365341
161.25891 38.828724 -4.2124567 4278365341
161.61223 38.976196 -4.2466989 4278365341
161.63652 38.967548 -4.2350497 4278365341
161.61766 38.960873 -4.2350497 4278365341
161.5988 38.954197 -4.2350497 4278365341
161.62309 38.945549 -4.2234006 4278365341
173.44749 38.500473 -4.3496761 4292229333
173.43121 38.487225 -4.3299999 4292229333
173.45009 38.493843 -4.3300395 4292229333
173.46898 38.500481 -4.3300786 4292229333
173.45297 38.4865 -4.3104453 4292229333
173.80113 38.628475 -4.2775679 4292229333
173.78503 38.610672 -4.2580099 4292229333
173.80226 38.624069 -4.2577114 4292229333
173.81961 38.636986 -4.2574301 4292229333
173.80351 38.619183 -4.2378721 4292229333
174.2399 38.803612 -4.2475533 4292229333
174.26646 38.794601 -4.257741 4292229333
174.29333 38.784973 -4.2682843 4292229333
174.71632 38.942089 -4.2614207 4289034929
174.69661 38.938461 -4.2414541 4289034929
174.71603 38.943214 -4.2414541 4289034929
174.73547 38.947964 -4.2414541 4289034929
174.71576 38.94434 -4.2214875 4289034929
175.14809 39.03775 -4.423418 4289034929
175.13116 39.025925 -4.4030828 4289034929
175.14819 39.037495 -4.4033675 4289034929
175.16473 39.050312 -4.4037299 4289034929
175.14827 39.037254 -4.3833179 4289034929
161.85397 39.074131 -4.2778754 4278365341
161.83566 39.06609 -4.2578788 4278365341
161.85411 39.073792 -4.2578788 4278365341
161.87257 39.08149 -4.2578788 4278365341
161.85426 39.073448 -4.2378821 4278365341
162.27182 39.243168 -4.2641821 4278365341
162.25342 39.235329 -4.2441878 4278365341
162.272 39.242733 -4.2441878 4278365341
162.29057 39.250137 -4.2441878 4278365341
162.27217 39.242302 -4.2241931 4278365341
162.74129 39.410339 -4.2526374 4285789897
162.7146 39.419201 -4.2495937 4285789897
162.73253 39.428062 -4.2495937 4285789897
162.75046 39.436924 -4.2495937 4285789897
162.72377 39.445786 -4.2465501 4285789897
163.30634 39.441853 -4.0810142 4285789897
163.30231 39.4217 -4.0615821 4285789897
163.30161 39.441685 -4.0615821 4285789897
163.3009 39.461674 -4.0615821 4285789897
163.29688 39.441521 -4.0421495 4285789897
174.87331 39.01685 -4.2834983 4289034929
174.8546 39.009567 -4.2635846 4289034929
174.87383 39.015064 -4.2635846 4289034929
174.89305 39.020565 -4.2635846 4289034929
174.87433 39.013283 -4.2436709 4289034929
175.28448 39.182804 -4.2825055 4289034929
175.26663 39.173756 -4.2625227 4289034929
175.28482 39.182049 -4.2625227 4289034929
175.30302 39.190346 -4.2625227 4289034929
175.28517 39.181293 -4.2425399 4289034929
175.73068 39.388592 -4.2768989 4294901760
175.71223 39.380833 -4.2569175 4294901760
175.73099 39.387787 -4.2569175 4294901760
175.74974 39.394741 -4.2569175 4294901760
175.73128 39.386982 -4.2369356 4294901760
176.08415 39.515469 -4.2517028 4281400050
176.065 39.509708 -4.2316804 4281400050
176.08397 39.516048 -4.2317014 4281400050
176.10287 39.52261 -4.2317367 4281400050
176.08383 39.516464 -4.2116885 4281400050
162.91461 39.520519 -4.2662663 4294901760
162.89629 39.512493 -4.2462678 4294901760
162.9147 39.520294 -4.2462678 4294901760
162.93312 39.528095 -4.2462678 4294901760
162.91479 39.520073 -4.2262692 4294901760
163.25726 39.543316 -4.2432785 4285789897
163.23772 39.548531 -4.2235131 4285789897
163.2576 39.546352 -4.2235131 4285789897
163.27748 39.544174 -4.2235131 4285789897
163.25793 39.549389 -4.2037477 4285789897
163.79218 39.817738 -4.2390695 4294901760
163.77327 39.809731 -4.219615 4294901760
163.78944 39.821491 -4.219615 4294901760
163.80563 39.833248 -4.219615 4294901760
163.78671 39.825241 -4.2001605 4294901760
164.13248 39.985924 -4.2679162 4281442371
164.1153 39.973835 -4.2472544 4281442371
164.13293 39.984455 -4.2476964 4281442371
164.15047 39.995441 -4.2481728 4281442371
164.13338 39.983051 -4.2274828 4281442371
175.96536 39.465584 -4.250051 4281400050
175.91258 39.5471 -4.2476821 4281400050
175.93997 39.531609 -4.2430844 4281400050
175.96721 39.516506 -4.2385659 4281400050
175.91603 39.593838 -4.2353487 4281400050
176.29568 39.498795 -4.2802038 4281400050
176.2757 39.499397 -4.2602038 4281400050
176.29568 39.49873 -4.2602038 4281400050
176.31567 39.498062 -4.2602038 4281400050
176.29567 39.498669 -4.2402039 4281400050
176.76558 39.890957 -4.2767129 4294901760
176.74609 39.886185 -4.2567835 4294901760
176.76584 39.889297 -4.2567835 4294901760
176.7856 39.89241 -4.2567835 4294901760
176.7661 39.887638 -4.2368541 4294901760
177.16327 39.983208 -4.2897458 4294901760
177.14371 39.978951 -4.2697706 4294901760
177.16344 39.982227 -4.2697706 4294901760
177.18317 39.985504 -4.2697706 4294901760
177.1636 39.981247 -4.2497954 4294901760
164.29817 40.088066 -4.2656918 4281442371
164.28014 40.079399 -4.245697 4281442371
164.29836 40.087654 -4.245697 4281442371
164.31657 40.095909 -4.245697 4281442371
164.29855 40.087242 -4.2257018 4281442371
164.75484 40.279247 -4.2724423 4281442371
164.73631 40.27166 -4.2524505 4281442371
164.75504 40.278702 -4.2524505 4281442371
164.77376 40.28574 -4.2524505 4281442371
164.75523 40.278156 -4.2324591 4281442371
165.15639 40.407612 -4.251194 4281442371
165.13695 40.402874 -4.231194 4281442371
165.15637 40.407665 -4.231194 4281442371
165.1758 40.412453 -4.231194 4281442371
165.15636 40.407715 -4.2111945 4281442371
165.60405 40.453442 -4.2290592 4281442371
165.62701 40.43716 -4.2263012 4281442371
165.60728 40.433899 -4.2263012 4281442371
165.58755 40.430634 -4.2263012 4281442371
165.61052 40.414356 -4.2235432 4281442371
176.76286 40.061661 -4.5115609 4294901760
176.74516 40.024944 -4.4953599 4294901760
176.76279 40.062977 -4.4912939 4294901760
176.78064 40.097488 -4.4876175 4294901760
176.76288 40.061481 -4.4713378 4294901760
177.36981 40.058861 -4.2983017 4294901760
177.353 40.047722 -4.2784729 4294901760
177.37096 40.056515 -4.2784729 4294901760
177.38892 40.065308 -4.2784729 4294901760
177.3721 40.054169 -4.2586446 4294901760
177.70657 40.301281 -4.2808299 4294901760
177.68924 40.290897 -4.2610331 4294901760
177.70477 40.30349 -4.2610331 4294901760
177.72032 40.316086 -4.2610331 4294901760
177.70299 40.305698 -4.2412362 4294901760
178.25502 40.493942 -4.2276278 4294901760
178.23465 40.491058 -4.2082167 4294901760
178.25455 40.489147 -4.2082167 4294901760
178.27446 40.487232 -4.2082167 4294901760
178.25409 40.484348 -4.1888061 4294901760
178.50558 40.496357 -4.2108922 4294901760
178.50728 40.43977 -4.1926541 4294901760
178.52942 40.438519 -4.1929755 4294901760
178.55203 40.436138 -4.1933374 4294901760
178.55116 40.385742 -4.1748753 4294901760
165.39961 40.586754 -4.2729244 4281442371
165.39224 40.54776 -4.2542553 4281442371
165.40717 40.565502 -4.2537947 4281442371
165.42256 40.581902 -4.2533903 4281442371
165.41475 40.544147 -4.2346692 4281442371
165.80376 40.670395 -4.2871666 4281442371
165.78728 40.658474 -4.267508 4281442371
165.80533 40.667072 -4.267508 4281442371
165.82339 40.675667 -4.267508 4281442371
165.80692 40.66375 -4.247849 4281442371
166.24953 40.89415 -4.2764373 4281442371
166.23172 40.884926 -4.256495 4281442371
166.25012 40.89275 -4.256495 4281442371
166.26854 40.900574 -4.256495 4281442371
166.25072 40.89135 -4.2365532 4281442371
166.5827 41.007103 -4.0540314 4281442371
166.56483 40.997948 -4.0340858 4281442371
166.58336 41.005493 -4.0340853 4281442371
166.6019 41.012997 -4.0340862 4281442371
166.58388 41.004219 -4.0141244 4281442371
177.93417 40.574905 -4.2957239 4294901760
177.96141 40.568752 -4.2912083 4294901760
177.94437 40.558296 -4.2912083 4294901760
177.92732 40.547844 -4.2912083 4294901760
177.95454 40.541687 -4.2866931 4294901760
178.39514 40.545315 -4.231504 4294901760
178.41403 40.555004 -4.2315378 4294901760
178.43304 40.563713 -4.2315669 4294901760
178.42645 40.461433 -4.2110901 4294901760
178.77892 40.649448 -4.2886534 4290870026
178.76157 40.639217 -4.2687941 4290870026
178.77988 40.647285 -4.2687941 4290870026
178.79817 40.655354 -4.2687941 4290870026
178.78082 40.645119 -4.2489347 4290870026
179.2354 40.940403 -4.28932 4290870026
179.21515 40.942204 -4.2696395 4290870026
179.23508 40.943951 -4.2696395 4290870026
179.255 40.945698 -4.2696395 4290870026
179.23477 40.947498 -4.2499595 4290870026
179.60431 41.027069 -4.2174907 4290870026
179.58687 41.016571 -4.1978555 4290870026
179.60562 41.023502 -4.1978555 4290870026
179.62439 41.030434 -4.1978555 4290870026
179.60695 41.019932 -4.1782207 4290870026
166.43129 41.004387 -4.3505082 4281442371
166.4142 40.993549 -4.3306956 4281442371
166.43233 41.00201 -4.3306532 4281442371
166.45052 41.010334 -4.3306231 4281442371
166.43344 40.999432 -4.3108163 4281442371
166.79279 41.132748 -4.2788649 4281442371
166.77473 41.124062 -4.2589016 4281442371
166.79324 41.131622 -4.2589016 4281442371
166.81177 41.139187 -4.2589016 4281442371
166.7937 41.130501 -4.2389383 4281442371
167.27829 41.332062 -4.2764764 4281442371
167.26012 41.323696 -4.2564859 4281442371
167.27853 41.33149 -4.2564859 4281442371
167.29695 41.339283 -4.2564859 4281442371
167.27878 41.330917 -4.2364955 4281442371
167.62686 41.475159 -4.2554531 4281442371
167.60883 41.466511 -4.2354603 4281442371
167.62709 41.474667 -4.2354603 4281442371
167.64536 41.482826 -4.2354603 4281442371
167.6273 41.474174 -4.2154675 4281442371
179.38786 40.95293 -4.2944517 4290870026
179.36766 40.951035 -4.2747374 4290870026
179.38686 40.956669 -4.2748036 4290870026
179.40607 40.962292 -4.274868 4290870026
179.3858 40.960629 -4.2551885 4290870026
179.81754 41.121227 -4.2766771 4290870026
179.79927 41.112888 -4.2567511 4290870026
179.81812 41.11961 -4.2567511 4290870026
179.83694 41.126331 -4.2567511 4290870026
179.8187 41.117989 -4.236825 4290870026
180.24812 41.356724 -4.2459102 4294901760
180.2319 41.344322 -4.2263355 4294901760
180.24991 41.353031 -4.2263355 4294901760
180.26791 41.361736 -4.2263355 4294901760
180.25169 41.349339 -4.2067609 4294901760
180.65065 41.426048 -4.2602639 4294901760
180.66945 41.43697 -4.2608294 4294901760
180.68835 41.447117 -4.261343 4294901760
181.09721 41.461086 -4.2972555 4293515372
181.07103 41.470798 -4.2927752 4293515372
181.08932 41.478905 -4.2927752 4293515372
181.1076 41.487011 -4.2927752 4293515372
181.08142 41.496723 -4.2882948 4293515372
167.82982 41.572197 -4.261796 4281442371
167.81166 41.563782 -4.2418108 4281442371
167.83012 41.571484 -4.2418108 4281442371
167.84857 41.579185 -4.2418108 4281442371
167.83041 41.57077 -4.2218261 4281442371
168.26945 41.75642 -4.2854056 4284193018
168.25084 41.7491 -4.2654061 4284193018
168.26942 41.756508 -4.2654061 4284193018
168.28799 41.763916 -4.2654061 4284193018
168.26938 41.756596 -4.2454062 4284193018
168.70001 41.925819 -4.2611737 4284193018
168.68167 41.91777 -4.2412004 4284193018
168.70038 41.924847 -4.2412004 4284193018
168.71909 41.931927 -4.2412004 4284193018
168.70074 41.923878 -4.2212276 4284193018
169.03651 41.912018 -4.323525 4284193018
168.99289 41.981441 -4.3107066 4284193018
169.01082 41.990967 -4.3110271 4284193018
169.02925 41.998936 -4.3111978 4284193018
168.9827 42.077332 -4.2992415 4284193018
180.37686 41.606739 -4.243731 4294901760
180.35649 41.587151 -4.2425776 4294901760
180.3569 41.607147 -4.2425776 4294901760
180.35732 41.627144 -4.2425776 4294901760
180.33694 41.607555 -4.2414241 4294901760
180.85905 41.572964 -4.2721844 4294901760
180.84055 41.565327 -4.2521901 4294901760
180.85672 41.579441 -4.2521386 4294901760
180.87308 41.593037 -4.2520909 4294901760
180.85442 41.585827 -4.2320933 4294901760
181.27077 41.717602 -4.2747555 4293515372
181.25351 41.707489 -4.2547636 4293515372
181.27104 41.717098 -4.2547636 4293515372
181.28859 41.726707 -4.2547636 4293515372
181.27132 41.716595 -4.2347717 4293515372
181.74417 41.948959 -4.2678318 4294901760
181.7243 41.946693 -4.2478361 4294901760
181.74413 41.949371 -4.2478361 4294901760
181.76395 41.952049 -4.2478361 4294901760
181.74406 41.949783 -4.2278404 4294901760
182.19295 42.059208 -4.2114096 4294901760
182.17334 42.055252 -4.1913924 4294901760
182.19208 42.062962 -4.1916542 4294901760
182.21075 42.070938 -4.1919384 4294901760
182.1913 42.066273 -4.1718626 4294901760
168.89149 42.014374 -4.3115344 4284193018
168.87378 42.004868 -4.2916336 4284193018
168.89226 42.012535 -4.2916336 4284193018
168.91072 42.020203 -4.2916336 4284193018
168.89302 42.010696 -4.2717333 4284193018
169.26814 42.174568 -4.2982807 4284193018
169.25006 42.166008 -4.278286 4284193018
169.26833 42.174149 -4.278286 4284193018
169.28659 42.182293 -4.278286 4284193018
169.26851 42.173729 -4.2582912 4284193018
169.75974 42.38237 -4.2441092 4284193018
169.74167 42.37368 -4.2241602 4284193018
169.76025 42.381042 -4.2241602 4284193018
169.77885 42.388405 -4.2241602 4284193018
169.76079 42.379715 -4.2042112 4284193018
170.06802 42.508682 -4.2679567 4294901760
170.04916 42.501869 -4.2480102 4294901760
170.06743 42.51001 -4.2480102 4294901760
170.08569 42.518154 -4.2480102 4294901760
170.06683 42.511341 -4.2280631 4294901760
181.90837 42.099804 -4.2941256 4294901760
181.89415 42.045483 -4.2752938 4294901760
181.91394 42.048439 -4.2752757 4294901760
181.93372 42.051655 -4.2752519 4294901760
181.91998 41.992817 -4.2565217 4294901760
182.26292 42.028084 -4.3155723 4294901760
182.2426 42.02721 -4.2959309 4294901760
182.26239 42.024349 -4.2959309 4294901760
182.28218 42.021492 -4.2959309 4294901760
182.26186 42.020618 -4.2762895 4294901760
182.74834 42.430141 -4.2814894 4281701198
182.72798 42.431465 -4.2619009 4281701198
182.7478 42.434139 -4.2619009 4281701198
182.76762 42.436813 -4.2619009 4281701198
182.74727 42.438137 -4.2423124 4281701198
183.12608 42.52076 -4.223999 4281701198
183.10858 42.510086 -4.204514 4281701198
183.12753 42.516487 -4.204514 4281701198
183.14647 42.522884 -4.204514 4281701198
183.12897 42.512211 -4.1850295 4281701198
169.99036 42.482803 -4.385241 4294901760
169.97179 42.475365 -4.3651452 4294901760
169.99025 42.483063 -4.3651481 4294901760
170.00882 42.490501 -4.3651752 4294901760
169.99007 42.483505 -4.3450389 4294901760
170.28189 42.576435 -4.2741385 4294901760
170.2626 42.571045 -4.2541523 4294901760
170.28166 42.577152 -4.2541523 4294901760
170.3007 42.583263 -4.2541523 4294901760
170.28142 42.577869 -4.2341666 4294901760
170.75787 42.786854 -4.2722917 4294901760
170.75441 42.791397 -4.2525897 4294901760
170.75117 42.795658 -4.2328672 4294901760
171.16068 43.016243 -4.3062997 4294901760
171.1394 43.01976 -4.2878623 4294901760
171.15918 43.022953 -4.2874942 4294901760
171.17909 43.025589 -4.2869468 4294901760
171.15764 43.029892 -4.2687612 4294901760
182.88516 42.438446 -4.3708763 4281701198
182.868 42.427914 -4.3510089 4281701198
182.88612 42.436363 -4.3510089 4281701198
182.90425 42.444809 -4.3510089 4281701198
182.8871 42.434277 -4.3311415 4281701198
183.36603 42.578239 -4.2691507 4281701198
183.34747 42.57077 -4.2491565 4281701198
183.36584 42.578674 -4.2491565 4281701198
183.38422 42.586582 -4.2491565 4281701198
183.36566 42.579113 -4.2291617 4281701198
183.77115 42.744301 -4.2637482 4287760380
183.75259 42.736774 -4.2437792 4287760380
183.77151 42.743252 -4.2437792 4287760380
183.79044 42.749729 -4.2437792 4287760380
183.77188 42.742203 -4.2238102 4287760380
184.24416 42.918324 -4.2652831 4287760380
184.23199 42.883183 -4.2458119 4287760380
184.24448 42.916969 -4.2453036 4287760380
184.25774 42.947483 -4.2448525 4287760380
184.24478 42.915668 -4.2253237 4287760380
184.56627 42.974453 -4.3562713 4287760380
184.54399 42.978546 -4.3361292 4287760380
184.56055 42.992512 -4.336019 4287760380
184.5773 43.005821 -4.3359184 4287760380
184.55356 43.014545 -4.3157115 4287760380
170.95541 43.085499 -4.2322927 4294901760
170.96815 43.11739 -4.2301993 4294901760
170.98073 43.149963 -4.2280531 4294901760
171.35394 43.03561 -4.2684188 4294901760
171.33156 43.052303 -4.252111 4294901760
171.35086 43.058964 -4.2529793 4294901760
171.37013 43.065781 -4.2538805 4294901760
171.34799 43.080723 -4.2371984 4294901760
171.74001 43.248611 -4.2864361 4294901760
171.7216 43.239693 -4.2669082 4294901760
171.73735 43.252014 -4.2669082 4294901760
171.7531 43.264336 -4.2669082 4294901760
171.7347 43.255417 -4.2473807 4294901760
172.22665 43.403431 -4.2546148 4286920157
172.25175 43.404449 -4.2416091 4286920157
172.23633 43.391716 -4.2416091 4286920157
172.2209 43.378983 -4.2416091 4286920157
172.246 43.380001 -4.2286034 4286920157
172.54306 43.512508 -4.1456728 4286920157
172.52374 43.507324 -4.1256614 4286920157
172.54283 43.513268 -4.125659 4286920157
172.56186 43.519455 -4.1256533 4286920157
172.54263 43.513969 -4.1056466 4286920157
184.35902 43.015354 -4.2502475 4294901760
184.34265 43.000538 -4.229867 4287760380
184.36008 43.01194 -4.230093 4287760380
184.37759 43.022991 -4.2303042 4287760380
184.36108 43.00864 -4.2099428 4287760380
184.78094 43.156342 -4.2739921 4287760380
184.76868 43.132935 -4.2536807 4287760380
184.78119 43.155716 -4.2539768 4287760380
184.79301 43.180233 -4.2543063 4287760380
184.78145 43.155075 -4.2339616 4287760380
185.24461 43.373379 -4.2742057 4286086482
185.22597 43.366116 -4.254209 4286086482
185.24474 43.373039 -4.254209 4286086482
185.2635 43.379967 -4.254209 4286086482
185.24486 43.372704 -4.2342119 4286086482
185.63838 43.523327 -4.2306199 4286086482
185.6199 43.515301 -4.2107577 4286086482
185.63905 43.521084 -4.2107577 4286086482
185.6582 43.526867 -4.2107577 4286086482
185.63972 43.518841 -4.190896 4286086482
172.476 43.493591 -4.2282143 4286920157
172.45604 43.489719 -4.2085447 4286920157
172.47469 43.496967 -4.2085447 4286920157
172.49333 43.504215 -4.2085447 4286920157
172.47337 43.50034 -4.1888747 4286920157
172.79442 43.635963 -4.2738943 4286920157
172.77657 43.620525 -4.2583079 4286920157
172.79633 43.623577 -4.2583079 4286920157
172.81609 43.626629 -4.2583079 4286920157
172.79823 43.611191 -4.2427216 4286920157
173.26266 43.82724 -4.2551198 4286920157
173.24438 43.819031 -4.2351651 4286920157
173.26314 43.825977 -4.2351651 4286920157
173.28189 43.832924 -4.2351651 4286920157
173.26361 43.824715 -4.2152104 4286920157
173.64507 43.979458 -4.2395539 4286920157
173.62712 43.970497 -4.2196064 4286920157
173.64561 43.978119 -4.2196064 4286920157
173.66411 43.985737 -4.2196064 4286920157
173.64616 43.97678 -4.1996589 4286920157
185.34001 43.581154 -4.1708984 4286086482
185.33444 43.487991 -4.1472654 4286086482
185.34584 43.544128 -4.1493955 4286086482
185.35867 43.591209 -4.1511617 4286086482
185.35098 43.511448 -4.128067 4286086482
185.8598 43.544716 -4.2568202 4286086482
185.83968 43.54044 -4.2374091 4286086482
185.85773 43.549065 -4.2374091 4286086482
185.87576 43.557686 -4.2374091 4286086482
185.85564 43.55341 -4.217998 4286086482
186.26799 43.783741 -4.2721357 4286086482
186.24818 43.779285 -4.2524314 4286086482
186.26668 43.786907 -4.2524314 4286086482
186.28517 43.794533 -4.2524314 4286086482
186.26537 43.790077 -4.2327271 4286086482
186.70122 44.005512 -4.2390723 4294901760
186.70119 43.925026 -4.2285757 4294901760
186.72067 43.929543 -4.2286325 4294901760
186.74028 43.933586 -4.2287498 4294901760
186.73854 43.859764 -4.217401 4294901760
187.10594 44.075813 -4.2327075 4294901760
187.08972 44.061256 -4.2146854 4294901760
187.10869 44.067589 -4.2146854 4294901760
187.12766 44.073917 -4.2146854 4294901760
187.11143 44.059361 -4.1966639 4294901760
173.87303 44.07423 -4.270225 4286920157
173.8553 44.064842 -4.2502866 4286920157
173.87366 44.072788 -4.2502866 4286920157
173.89201 44.08073 -4.2502866 4286920157
173.87428 44.071346 -4.2303481 4286920157
174.27232 44.241203 -4.2460437 4286920157
174.25407 44.232964 -4.2260618 4286920157
174.27264 44.240414 -4.2260618 4286920157
174.2912 44.247864 -4.2260618 4286920157
174.27296 44.239624 -4.2060795 4286920157
174.73126 44.406933 -4.2835822 4286920157
174.7126 44.399563 -4.2636456 4286920157
174.73172 44.405411 -4.2636456 4286920157
174.75085 44.411255 -4.2636456 4286920157
174.73219 44.403889 -4.2437091 4286920157
175.19324 44.501774 -4.1484151 4286920157
175.18571 44.473755 -4.1330547 4286920157
175.20465 44.480808 -4.1337686 4286920157
175.22421 44.486691 -4.1348162 4286920157
175.21449 44.46273 -4.1183 4286920157
186.90396 44.041424 -4.29778 4294901760
186.88773 44.026867 -4.2797585 4294901760
186.90671 44.033199 -4.2797585 4294901760
186.92567 44.039528 -4.2797585 4294901760
186.90945 44.024971 -4.2617364 4294901760
187.29208 44.167439 -4.2674699 4294901760
187.27333 44.160412 -4.2474871 4294901760
187.29175 44.168205 -4.2474871 4294901760
187.31017 44.176003 -4.2474871 4294901760
187.29143 44.168972 -4.2275047 4294901760
187.74361 44.375477 -4.2717128 4281620510
187.73042 44.353355 -4.2519817 4281620510
187.74388 44.374744 -4.2517228 4281620510
187.75697 44.397095 -4.2514462 4281620510
187.74399 44.374454 -4.2317252 4281620510
188.13086 44.524044 -4.2324777 4294901760
188.11806 44.451679 -4.2146759 4294901760
188.13661 44.466965 -4.2142591 4294901760
188.15521 44.481827 -4.2138557 4294901760
188.14186 44.414978 -4.1958809 4294901760
188.5262 44.452927 -4.4099607 4294901760
188.50415 44.45686 -4.3900037 4294901760
188.52084 44.470814 -4.3900404 4294901760
188.53783 44.48381 -4.3900728 4294901760
188.51413 44.493214 -4.3701401 4294901760
174.95715 44.494087 -4.2296052 4286920157
