# .PCD v0.7 - Point Cloud Data file format
VERSION 0.7
FIELDS x y z
SIZE 4 4 4
TYPE F F F
COUNT 1 1 1
WIDTH 412
HEIGHT 1
VIEWPOINT 0 0 0 1 0 0 0
POINTS 412
DATA ascii
51.068329 -7.8565216 1.0730642
51.103909 -7.9420266 1.0679399
51.129303 -8.0030546 1.0642824
51.159641 -8.075963 1.0599135
51.181484 -8.1284628 1.0567671
51.230198 -8.2455387 1.0497508
51.274017 -8.3508501 1.04344
51.297314 -8.4068308 1.0400851
51.319298 -8.459672 1.0369186
51.339741 -8.5088015 1.0339744
51.364212 -8.5676193 1.0304496
51.39006 -8.6297531 1.0267262
51.416481 -8.6932402 1.0229218
51.433617 -8.734417 1.0204538
51.485085 -8.8581057 1.0130411
51.516331 -8.9331989 1.0085413
51.540112 -8.9903612 1.005116
51.568077 -9.0575619 1.0010881
51.60466 -9.1454897 0.99581933
51.64587 -9.2445259 0.98988438
51.661823 -9.2828627 0.98758698
51.687649 -9.3449287 0.98386693
51.710499 -9.3998413 0.98057652
51.734768 -9.4581785 0.97708082
51.766518 -9.5344858 0.97250777
51.7868 -9.5832329 0.96958649
51.832512 -9.6930828 0.9630031
51.865623 -9.7726641 0.95823419
51.891861 -9.8357286 0.95445508
51.910725 -9.8810463 0.95173889
51.952297 -9.9809666 0.94575119
51.974682 -10.034756 0.94252753
52.004719 -10.10694 0.93820179
52.02615 -10.15847 0.93511379
52.047112 -10.208832 0.93209547
52.092159 -10.31709 0.92560804
52.118561 -10.380551 0.92180514
52.137638 -10.426395 0.91905767
52.191086 -10.554849 0.91135985
52.215824 -10.614294 0.90779716
52.237457 -10.666303 0.90468079
52.264114 -10.730365 0.90084183
52.292961 -10.799681 0.89668769
52.319447 -10.863337 0.89287287
52.378597 -11.005496 0.88435352
52.392921 -11.039916 0.8822909
52.428364 -11.125106 0.87718588
52.477734 -11.24375 0.87007558
52.487885 -11.268147 0.86861348
52.525505 -11.358569 0.863195
52.556938 -11.434101 0.85866833
52.56308 -11.448862 0.85778379
52.590694 -11.715804 -2.1600361
52.575218 -11.678609 -2.1578074
52.563816 -11.651201 -2.1561649
52.557617 -11.636312 -2.1552725
52.536205 -11.58485 -2.1521883
52.501846 -11.502259 -2.1472392
52.471546 -11.429452 -2.1428757
52.449295 -11.375962 -2.1396706
52.428066 -11.324962 -2.1366141
52.422337 -11.311176 -2.1357877
52.40926 -11.279759 -2.1339049
52.390785 -11.23536 -2.1312444
52.353115 -11.144833 -2.1258194
52.343132 -11.120835 -2.1243811
52.293579 -11.001737 -2.117244
52.258129 -10.916531 -2.1121378
52.243702 -10.881875 -2.1100607
52.184837 -10.740396 -2.1015828
52.158268 -10.676541 -2.0977557
52.129448 -10.607283 -2.0936055
52.102753 -10.543124 -2.0897603
52.080986 -10.490804 -2.0866251
52.056389 -10.431697 -2.0830829
52.002975 -10.303321 -2.0753899
51.983944 -10.257586 -2.072649
51.957203 -10.193325 -2.0687981
51.912312 -10.085439 -2.0623326
51.891533 -10.035503 -2.0593398
51.869984 -9.9837027 -2.0562358
51.839703 -9.9109344 -2.0518749
51.817429 -9.8574057 -2.048667
51.775948 -9.7577085 -2.0426927
51.757072 -9.7123442 -2.0399742
51.730942 -9.6495371 -2.0362101
51.697639 -9.5694971 -2.0314138
51.652168 -9.4602194 -2.0248649
51.631847 -9.4113913 -2.0219386
51.600048 -9.3349705 -2.0173585
51.57552 -9.276022 -2.0138259
51.552757 -9.2213163 -2.0105476
51.527107 -9.1596584 -2.0068529
51.511051 -9.1210794 -2.0045409
51.469852 -9.0220623 -1.9986072
51.433197 -8.9339752 -1.9933282
51.405464 -8.8673201 -1.9893337
51.381638 -8.8100529 -1.9859021
51.350143 -8.7343645 -1.9813662
51.298782 -8.6109209 -1.9739687
51.281815 -8.5701523 -1.9715251
51.255096 -8.5059404 -1.9676772
51.229515 -8.4444675 -1.9639931
51.204853 -8.3851871 -1.9604408
51.184299 -8.3358002 -1.9574811
51.162628 -8.2837086 -1.9543594
51.139389 -8.2278576 -1.9510125
51.095585 -8.1225786 -1.9447032
51.046757 -8.0052328 -1.9376709
51.024937 -7.9527979 -1.9345288
50.994385 -7.8793807 -1.9301287
50.968906 -7.818131 -1.9264586
50.933388 -7.7327847 -1.9213436
50.909729 -7.6759138 -1.9179358
50.867023 -7.5732861 -1.9117854
50.848385 -7.5284829 -1.9091004
50.817131 -7.4533782 -1.9045995
50.78476 -7.3755732 -1.8999373
50.831165 -7.3344927 0.38667998
50.829105 -7.3342819 0.31559211
50.825268 -7.3338914 0.18336581
50.823757 -7.3337417 0.13150799
50.82159 -7.3335204 0.056829251
50.818813 -7.3332376 -0.038844846
50.816448 -7.3329992 -0.12052802
50.814907 -7.3328471 -0.17328727
50.812256 -7.3325753 -0.26482669
50.810551 -7.3324022 -0.3234008
50.806095 -7.3319502 -0.47691715
50.800671 -7.3314009 -0.66375339
50.79837 -7.3311691 -0.7429992
50.796738 -7.3310032 -0.79922867
50.793663 -7.3306894 -0.90521288
50.790768 -7.3303962 -1.0049622
50.788467 -7.3301649 -1.0840816
50.78553 -7.3298678 -1.1854519
50.784054 -7.3297176 -1.2361618
50.782642 -7.3295727 -1.2848334
50.779999 -7.3293042 -1.3759655
50.779667 -7.3292718 -1.3873086
50.774544 -7.3287544 -1.5637207
50.773106 -7.3286066 -1.6132907
50.770073 -7.3282971 -1.7179371
50.768589 -7.3281484 -1.7688335
50.76511 -7.3277965 -1.8887115
50.765011 -7.3277893 -1.8921812
52.593426 -11.722169 -2.1575239
52.599384 -11.729199 -2.0488956
52.60244 -11.732791 -1.9928735
52.608597 -11.74004 -1.8803684
52.610786 -11.742621 -1.8403978
52.616085 -11.748882 -1.7439581
52.621342 -11.755068 -1.6477515
52.623013 -11.757026 -1.6172457
52.626331 -11.760935 -1.5564053
52.62989 -11.765121 -1.4912812
52.632858 -11.768615 -1.4370012
52.638988 -11.775839 -1.3251582
52.641254 -11.778507 -1.2837886
52.643436 -11.781079 -1.2436714
52.643906 -11.781626 -1.2352574
52.647606 -11.786005 -1.1679087
52.651825 -11.790974 -1.090788
52.654694 -11.794354 -1.03843
52.657455 -11.797588 -0.98790276
52.661736 -11.80265 -0.90982676
52.66317 -11.80434 -0.88353485
52.667309 -11.809191 -0.80753756
52.669594 -11.811874 -0.76567209
52.676746 -11.820299 -0.6350742
52.678326 -11.822157 -0.60609388
52.681232 -11.825584 -0.55320853
52.682602 -11.827195 -0.52818614
52.683735 -11.82853 -0.50740725
52.686367 -11.831624 -0.45918146
52.688419 -11.834037 -0.42168474
52.695568 -11.842462 -0.29101911
52.698708 -11.846177 -0.2340226
52.703533 -11.851841 -0.14548577
52.708878 -11.858136 -0.047909331
52.71228 -11.862151 0.014176784
52.714165 -11.864372 0.048575874
52.717896 -11.868766 0.11672385
52.722549 -11.87426 0.20166261
52.725231 -11.877394 0.25089273
52.728157 -11.880839 0.3044731
52.728848 -11.881646 0.317038
50.841923 -7.3557768 0.45366514
50.868359 -7.4130101 0.54453349
50.898167 -7.4775538 0.64690757
50.927212 -7.5404387 0.74672449
50.960358 -7.612195 0.8605901
50.986034 -7.6678004 0.94872457
51.013279 -7.726789 1.0422972
52.728893 -11.878246 0.36996651
52.712788 -11.836227 0.42192045
52.705551 -11.817363 0.44525495
52.685505 -11.76508 0.50996375
52.67083 -11.726789 0.55730915
52.665298 -11.712361 0.57514524
52.646889 -11.664327 0.6345281
52.636173 -11.636395 0.66904861
52.61998 -11.594159 0.72128695
52.608116 -11.563209 0.75957519
52.594727 -11.528286 0.80278295
52.580826 -11.492019 0.8476283
192.37904 51.17728 -2.8555002
192.41463 51.091774 -2.8606243
192.44002 51.030746 -2.8642819
192.47035 50.95784 -2.8686509
192.4922 50.905338 -2.8717971
192.54091 50.788261 -2.8788135
192.58473 50.682953 -2.8851242
192.60803 50.626972 -2.8884792
192.63004 50.574135 -2.8916461
192.65045 50.525002 -2.8945899
192.67494 50.466187 -2.8981152
192.70079 50.404053 -2.9018385
192.7272 50.340561 -2.9056425
192.74432 50.299385 -2.9081106
192.79581 50.175697 -2.9155231
192.82704 50.100601 -2.920023
192.85085 50.043446 -2.9234488
192.87878 49.976242 -2.9274762
192.91537 49.888313 -2.932745
192.95659 49.789276 -2.9386799
192.97253 49.750938 -2.9409773
192.99837 49.688873 -2.9446974
193.02121 49.633961 -2.9479878
193.04549 49.575623 -2.9514835
193.07724 49.499317 -2.9560566
193.09752 49.450569 -2.9589777
193.14322 49.340721 -2.9655612
193.17633 49.261139 -2.9703302
193.20259 49.198078 -2.9741096
193.22144 49.152756 -2.9768255
193.26302 49.052834 -2.9828131
193.2854 48.999046 -2.9860368
193.31543 48.926861 -2.9903626
193.33687 48.875332 -2.9934506
193.35782 48.82497 -2.9964688
193.40288 48.716713 -3.0029564
193.42929 48.653255 -3.0067596
193.44835 48.607407 -3.0095067
193.5018 48.478954 -3.0172045
193.52654 48.41951 -3.0207672
193.54817 48.3675 -3.0238836
193.57483 48.303436 -3.0277224
193.60367 48.234123 -3.0318766
193.63016 48.170464 -3.0356915
193.68932 48.028305 -3.0442109
193.70364 47.993885 -3.0462735
193.73909 47.908699 -3.051379
193.78845 47.790054 -3.0584888
193.7986 47.765656 -3.0599508
193.83624 47.675236 -3.0653698
193.86765 47.599701 -3.069896
193.87379 47.584938 -3.0707805
193.90141 47.317997 -6.0886002
193.88593 47.355194 -6.0863714
193.87453 47.382599 -6.0847292
193.86835 47.397491 -6.0838375
193.84692 47.448952 -6.0807524
193.81256 47.531544 -6.0758038
193.78227 47.604355 -6.0714407
193.76001 47.657841 -6.0682349
193.7388 47.708843 -6.0651789
193.73305 47.722626 -6.064352
193.71997 47.754044 -6.0624695
193.70151 47.798443 -6.0598087
193.66383 47.888969 -6.0543838
193.65384 47.912968 -6.0529451
193.60429 48.032066 -6.0458083
193.56885 48.117271 -6.0407019
193.55441 48.151928 -6.0386248
193.49554 48.293404 -6.0301471
193.46899 48.357265 -6.0263205
193.44019 48.426521 -6.0221701
193.41347 48.490677 -6.0183249
193.39169 48.542999 -6.0151892
193.3671 48.602104 -6.0116472
193.31369 48.73048 -6.0039539
193.29466 48.776215 -6.0012131
193.26791 48.840477 -5.9973621
193.22302 48.948364 -5.9908972
193.20227 48.998302 -5.9879045
193.18069 49.050098 -5.9848003
193.15042 49.122868 -5.9804392
193.12814 49.176395 -5.977231
193.08667 49.276093 -5.9712572
193.06778 49.321457 -5.9685383
193.04166 49.384266 -5.9647741
193.00836 49.464306 -5.9599781
192.96289 49.573582 -5.9534292
192.94257 49.62241 -5.9505029
192.91077 49.69883 -5.9459229
192.88623 49.757782 -5.9423904
192.86346 49.812485 -5.9391117
192.83783 49.874146 -5.9354172
192.82176 49.912724 -5.9331055
192.78056 50.011742 -5.9271717
192.74393 50.099831 -5.9218931
192.71619 50.166481 -5.9178982
192.69235 50.223747 -5.9144664
192.66086 50.299438 -5.9099302
192.6095 50.422882 -5.9025331
192.59254 50.463654 -5.9000897
192.56581 50.527863 -5.8962417
192.54025 50.58934 -5.8925581
192.51556 50.648613 -5.8890052
192.49501 50.698002 -5.8860455
192.47334 50.750092 -5.8829236
192.4501 50.805946 -5.8795767
192.4063 50.911224 -5.8732677
192.35747 51.028568 -5.8662353
192.33565 51.081005 -5.8630934
192.30511 51.154427 -5.8586936
192.27962 51.215672 -5.8550229
192.24411 51.301022 -5.8499084
192.22044 51.357887 -5.8465004
192.17775 51.460518 -5.8403502
192.1591 51.505318 -5.8376646
192.12784 51.580425 -5.8331637
192.09549 51.658234 -5.8285022
192.14188 51.69931 -3.5418844
192.13982 51.69952 -3.6129723
192.13599 51.699909 -3.7451985
192.13448 51.700062 -3.7970562
192.13232 51.700287 -3.8717356
192.12953 51.700565 -3.9674091
192.12717 51.700802 -4.0490923
192.12564 51.700958 -4.1018519
192.12297 51.701225 -4.1933908
192.12126 51.701401 -4.251965
192.11681 51.701851 -4.4054813
192.11139 51.7024 -4.5923176
192.10909 51.702633 -4.6715636
192.10745 51.702797 -4.7277927
192.10437 51.703114 -4.8337774
192.10149 51.703407 -4.9335265
192.09918 51.703636 -5.0126457
192.09625 51.703934 -5.1140161
192.09479 51.704086 -5.1647267
192.09335 51.704231 -5.213398
192.09071 51.704498 -5.3045297
192.09038 51.704529 -5.3158731
192.08527 51.705048 -5.4922848
192.08382 51.705196 -5.5418549
192.08078 51.705505 -5.6465015
192.0793 51.705654 -5.6973977
192.07582 51.706005 -5.817276
192.07573 51.706013 -5.8207455
193.90414 47.311634 -6.0860882
193.9101 47.304604 -5.9774599
193.91315 47.30101 -5.9214377
193.91931 47.293762 -5.8089328
193.92151 47.29118 -5.7689619
193.9268 47.28492 -5.6725225
193.93205 47.278732 -5.5763159
193.93373 47.276775 -5.5458097
193.93704 47.272865 -5.4849696
193.94061 47.268684 -5.4198461
193.94357 47.265186 -5.3655653
193.94971 47.257965 -5.2537227
193.95197 47.255295 -5.2123528
193.95416 47.252728 -5.1722364
193.95462 47.252174 -5.1638217
193.95831 47.247795 -5.0964727
193.96255 47.242832 -5.0193529
193.96541 47.239449 -4.9669943
193.96817 47.236214 -4.9164672
193.97244 47.231152 -4.8383913
193.97388 47.229462 -4.812099
193.97804 47.224617 -4.7361021
193.98032 47.221928 -4.6942363
193.98746 47.213501 -4.5636387
193.98904 47.211647 -4.5346584
193.99194 47.208218 -4.4817729
193.99332 47.206608 -4.4567504
193.99445 47.205273 -4.4359717
193.99709 47.202179 -4.3877459
193.99913 47.199764 -4.3502493
194.00629 47.191341 -4.2195835
194.00943 47.187626 -4.1625867
194.01425 47.181961 -4.0740499
194.01959 47.175667 -3.9764736
194.02299 47.17165 -3.9143875
194.02487 47.16943 -3.8799884
194.02861 47.165035 -3.8118405
194.03326 47.159542 -3.7269018
194.03595 47.15641 -3.6776717
194.03888 47.152962 -3.6240911
194.03957 47.152157 -3.6115263
192.15263 51.678024 -3.4748993
192.17908 51.620792 -3.3840308
192.20888 51.556248 -3.2816567
192.23793 51.493362 -3.1818399
192.27107 51.421608 -3.0679741
192.29675 51.366001 -2.9798398
192.32399 51.307014 -2.8862672
194.03963 47.15556 -3.5585983
194.0235 47.197575 -3.5066438
194.01627 47.216438 -3.4833093
193.99623 47.268726 -3.418601
193.98154 47.307014 -3.3712552
193.97601 47.321442 -3.3534191
193.95761 47.369476 -3.2940361
193.94688 47.397408 -3.2595158
193.93069 47.439644 -3.2072773
193.91885 47.470596 -3.1689897
193.90546 47.50552 -3.1257818
193.89154 47.541782 -3.080936
